# .PCD v0.7 - Point Cloud Data file format
VERSION 0.7
FIELDS x y z
SIZE 4 4 4
TYPE F F F
COUNT 1 1 1
WIDTH 1524
HEIGHT 1
VIEWPOINT 0 0 0 1 0 0 0
POINTS 1524
DATA ascii
0.73566425 0.11341491 -1.6339999
0.73872954 0.11341491 -1.6339999
0.74860448 0.11445606 -1.649
0.7516979 0.11445606 -1.649
0.75479126 0.11445606 -1.649
0.75788468 0.11445606 -1.649
0.74667227 0.11230436 -1.618
0.7427572 0.11126322 -1.603
0.74576432 0.11126322 -1.603
0.74877143 0.11126322 -1.603
0.75177854 0.11126322 -1.603
0.75478566 0.11126322 -1.603
0.75448358 0.11077735 -1.596
0.75415534 0.11029149 -1.589
0.75713617 0.11029149 -1.589
0.76346552 0.11077735 -1.596
0.76645952 0.11077735 -1.596
0.76945353 0.11077735 -1.596
0.77244747 0.11077735 -1.596
0.77544147 0.11077735 -1.596
0.77843547 0.11077735 -1.596
0.77800214 0.11029149 -1.589
0.78442341 0.11077735 -1.596
0.78741741 0.11077735 -1.596
0.79041135 0.11077735 -1.596
0.78594857 0.10973621 -1.581
0.78891438 0.10973621 -1.581
0.79188025 0.10973621 -1.581
0.79484606 0.10973621 -1.581
0.79427958 0.10925035 -1.574
0.79723227 0.10925035 -1.574
-0.4095059 0.060172293 -0.89099997
-0.40783444 0.060172293 -0.89099997
-0.40616298 0.060172293 -0.89099997
-0.40585348 0.060374897 -0.89399999
-0.40508059 0.060509965 -0.89600003
-0.40430021 0.060645029 -0.898
-0.40396068 0.060847633 -0.90100002
-0.40227047 0.060847633 -0.90100002
-0.40235859 0.061117761 -0.90499997
-0.4006609 0.061117761 -0.90499997
-0.40028572 0.061320364 -0.90799999
-0.39858237 0.061320364 -0.90799999
-0.39775321 0.061455432 -0.91000003
-0.39735174 0.061658032 -0.91299999
-0.39650571 0.0617931 -0.91500002
-0.39565217 0.061928164 -0.917
-0.39393196 0.061928164 -0.917
-0.39221171 0.061928164 -0.917
-0.39176899 0.062130768 -0.92000002
-0.39004314 0.062130768 -0.92000002
-0.38831729 0.062130768 -0.92000002
-0.38659143 0.062130768 -0.92000002
-0.38695726 0.062468436 -0.92500001
-0.3860549 0.062603496 -0.92699999
-0.38555968 0.0628061 -0.93000001
-0.38587859 0.063143767 -0.935
-0.38412458 0.063143767 -0.935
-0.38318849 0.063278832 -0.93699998
-0.38143075 0.063278832 -0.93699998
-0.379673 0.063278832 -0.93699998
-0.37912524 0.063481435 -0.94
-0.37736186 0.063481435 -0.94
-0.37759635 0.063819103 -0.94499999
-0.37701669 0.064021707 -0.94800001
-0.37523833 0.064021707 -0.94800001
-0.37345994 0.064021707 -0.94800001
-0.37246567 0.064156771 -0.94999999
-0.37185413 0.064359367 -0.95300001
-0.37006637 0.064359367 -0.95300001
-0.36827862 0.064359367 -0.95300001
-0.36841369 0.064697035 -0.958
-0.36661655 0.064697035 -0.958
-0.36596185 0.064899638 -0.96100003
-0.36415908 0.064899638 -0.96100003
-0.36235631 0.064899638 -0.96100003
-0.36130393 0.065034702 -0.963
-0.36061734 0.065237306 -0.96600002
-0.35880518 0.065237306 -0.96600002
-0.3581017 0.065439902 -0.96899998
-0.35738698 0.065642506 -0.972
-0.35629517 0.06577757 -0.97399998
-0.35555983 0.065980174 -0.977
-0.35372704 0.065980174 -0.977
-0.3529748 0.066182777 -0.98000002
-0.35113639 0.066182777 -0.98000002
-0.34929797 0.066182777 -0.98000002
-0.3485232 0.066385373 -0.98299998
-0.34667915 0.066385373 -0.98299998
-0.34553674 0.066520438 -0.98500001
-0.34473571 0.066723041 -0.98799998
-0.34392342 0.066925637 -0.991
-0.34206438 0.066925637 -0.991
-0.34123522 0.067128241 -0.99400002
-0.33937055 0.067128241 -0.99400002
-0.33954313 0.067533441 -1
-0.33868021 0.067736045 -1.003
-0.33780605 0.067938648 -1.006
-0.33591884 0.067938648 -1.006
-0.33469573 0.068073712 -1.008
-0.33379531 0.068276308 -1.011
-0.33091387 0.068073712 -1.008
-0.33000216 0.068276308 -1.011
-0.32907921 0.068478912 -1.0140001
-0.32717702 0.068478912 -1.0140001
-0.32719952 0.068884112 -1.02
-0.32528606 0.068884112 -1.02
-0.32432371 0.069086708 -1.023
-0.32240465 0.069086708 -1.023
-0.32048556 0.069086708 -1.023
-0.31950071 0.069289312 -1.026
-0.31757602 0.069289312 -1.026
-0.3168819 0.06955944 -1.03
-0.31586704 0.069762044 -1.033
-0.31484091 0.069964647 -1.036
-0.31289744 0.069964647 -1.036
-0.31185442 0.070167251 -1.039
-0.30990535 0.070167251 -1.039
-0.30884546 0.070369847 -1.0420001
-0.30777428 0.070572443 -1.045
-0.30581391 0.070572443 -1.045
-0.30472589 0.070775047 -1.048
-0.30275992 0.070775047 -1.048
-0.30079395 0.070775047 -1.048
-0.29996854 0.071045183 -1.052
-0.29799506 0.071045183 -1.052
-0.29686573 0.071247779 -1.0549999
-0.29488662 0.071247779 -1.0549999
-0.29374045 0.071450382 -1.058
-0.29258302 0.071652979 -1.061
-0.29059264 0.071652979 -1.061
-0.28941831 0.071855582 -1.064
-0.28742233 0.071855582 -1.064
-0.28730413 0.072328314 -1.071
-0.28609416 0.072530918 -1.074
-0.28513744 0.072801046 -1.0779999
-0.28311518 0.072801046 -1.0779999
-0.28187519 0.07300365 -1.081
-0.27984732 0.07300365 -1.081
-0.27781942 0.07300365 -1.081
-0.27579156 0.07300365 -1.081
-0.27376369 0.07300365 -1.081
-0.27274132 0.073273785 -1.085
-0.27070594 0.073273785 -1.085
-0.26941341 0.073476389 -1.0880001
-0.26810962 0.073678985 -1.091
-0.26777011 0.074151725 -1.098
-0.2666783 0.074421853 -1.102
-0.26461104 0.074421853 -1.102
-0.26325849 0.074624456 -1.105
-0.26213104 0.074894585 -1.109
-0.26005065 0.074894585 -1.109
-0.2589007 0.07516472 -1.113
-0.25681281 0.07516472 -1.113
-0.25472489 0.07516472 -1.113
-0.25331795 0.075367324 -1.1160001
-0.25212485 0.075637452 -1.12
-0.25002381 0.075637452 -1.12
-0.24792276 0.075637452 -1.12
-0.24735811 0.076110184 -1.127
-0.24611439 0.076380327 -1.131
-0.2439927 0.076380327 -1.131
-0.24187103 0.076380327 -1.131
-0.23974936 0.076380327 -1.131
-0.23825797 0.076582916 -1.1339999
-0.23613067 0.076582916 -1.1339999
-0.23482879 0.076853059 -1.138
-0.23351188 0.077123187 -1.142
-0.23136955 0.077123187 -1.142
-0.23003016 0.077393323 -1.146
-0.22788034 0.077393323 -1.146
-0.22573054 0.077393323 -1.146
-0.22494639 0.077866055 -1.153
-0.22278345 0.077866055 -1.153
-0.22215126 0.078406326 -1.161
-0.21997331 0.078406326 -1.161
-0.21854572 0.078676455 -1.165
-0.21636026 0.078676455 -1.165
-0.21417479 0.078676455 -1.165
-0.21271722 0.078946598 -1.169
-0.21052425 0.078946598 -1.169
-0.20904414 0.079216726 -1.173
-0.20754904 0.079486862 -1.177
-0.20534107 0.079486862 -1.177
-0.20382343 0.079756998 -1.181
-0.20160796 0.079756998 -1.181
-0.2000678 0.080027126 -1.1849999
-0.19851267 0.080297261 -1.189
-0.19628219 0.080297261 -1.189
-0.19470453 0.08056739 -1.193
-0.19311188 0.080837533 -1.197
-0.19166367 0.081175201 -1.202
-0.18940879 0.081175201 -1.202
-0.18715394 0.081175201 -1.202
-0.18612967 0.081715465 -1.21
-0.1844676 0.0819856 -1.214
-0.18219021 0.0819856 -1.214
-0.17991284 0.0819856 -1.214
-0.17763546 0.0819856 -1.214
-0.17535809 0.0819856 -1.214
-0.1730807 0.0819856 -1.214
0.049186856 0.088536344 -1.311
0.051646199 0.088536344 -1.311
0.053899191 0.088198677 -1.306
0.056133423 0.087861009 -1.301
0.058574006 0.087861009 -1.301
0.060780097 0.087523341 -1.296
0.062772334 0.086915538 -1.2869999
0.06518665 0.086915538 -1.2869999
0.06733834 0.08657787 -1.2819999
0.06947127 0.086240202 -1.277
0.071866833 0.086240202 -1.277
0.073971629 0.085902534 -1.272
0.076357812 0.085902534 -1.272
0.078743987 0.085902534 -1.272
0.081130169 0.085902534 -1.272
0.083253726 0.085632406 -1.268
0.085632406 0.085632406 -1.268
0.088011079 0.085632406 -1.268
0.090389758 0.085632406 -1.268
0.092768438 0.085632406 -1.268
0.095147118 0.085632406 -1.268
0.09752579 0.085632406 -1.268
0.09990447 0.085632406 -1.268
0.10300913 0.086240202 -1.277
0.10540469 0.086240202 -1.277
0.10780025 0.086240202 -1.277
0.11019582 0.086240202 -1.277
0.11215053 0.085902534 -1.272
0.11453671 0.085902534 -1.272
0.11692289 0.085902534 -1.272
0.11893389 0.085632406 -1.268
0.12131257 0.085632406 -1.268
0.12408144 0.085902534 -1.272
0.12646762 0.085902534 -1.272
0.1288538 0.085902534 -1.272
0.13123998 0.085902534 -1.272
0.13362616 0.085902534 -1.272
0.13601235 0.085902534 -1.272
0.13839853 0.085902534 -1.272
0.14189151 0.08657787 -1.2819999
0.14429645 0.08657787 -1.2819999
0.14670138 0.08657787 -1.2819999
0.14968787 0.086915538 -1.2869999
0.15210219 0.086915538 -1.2869999
0.15391621 0.08657787 -1.2819999
0.15571147 0.086240202 -1.277
0.15810704 0.086240202 -1.277
0.1605026 0.086240202 -1.277
0.16289815 0.086240202 -1.277
0.16529372 0.086240202 -1.277
0.1670327 0.085902534 -1.272
0.17008483 0.086240202 -1.277
0.1724804 0.086240202 -1.277
0.17419125 0.085902534 -1.272
0.17657743 0.085902534 -1.272
0.17840084 0.085632406 -1.268
0.18077952 0.085632406 -1.268
0.1831582 0.085632406 -1.268
0.18553688 0.085632406 -1.268
0.18717456 0.085294738 -1.263
0.18894355 0.085024595 -1.2589999
0.19130535 0.085024595 -1.2589999
0.19289801 0.084686935 -1.2539999
0.19525042 0.084686935 -1.2539999
0.19760284 0.084686935 -1.2539999
0.19995525 0.084686935 -1.2539999
0.20230767 0.084686935 -1.2539999
0.20547612 0.085024595 -1.2589999
0.20783791 0.085024595 -1.2589999
0.2101997 0.085024595 -1.2589999
0.2125615 0.085024595 -1.2589999
0.21492329 0.085024595 -1.2589999
0.21642216 0.084686935 -1.2539999
0.21877457 0.084686935 -1.2539999
0.21953997 0.084079131 -1.245
0.22187549 0.084079131 -1.245
0.22421102 0.084079131 -1.245
0.22654656 0.084079131 -1.245
0.22888209 0.084079131 -1.245
0.23121762 0.084079131 -1.245
0.23430352 0.084349267 -1.249
0.23664655 0.084349267 -1.249
0.23898959 0.084349267 -1.249
0.24055974 0.084079131 -1.245
0.24289528 0.084079131 -1.245
0.24523081 0.084079131 -1.245
0.24756634 0.084079131 -1.245
0.24990188 0.084079131 -1.245
0.25223741 0.084079131 -1.245
0.25539082 0.084349267 -1.249
0.25773385 0.084349267 -1.249
0.26007691 0.084349267 -1.249
0.26241994 0.084349267 -1.249
0.26476297 0.084349267 -1.249
0.267106 0.084349267 -1.249
0.26858613 0.084079131 -1.245
0.27092165 0.084079131 -1.245
0.2732572 0.084079131 -1.245
0.27448592 0.083741471 -1.24
0.27681208 0.083741471 -1.24
0.27913824 0.083741471 -1.24
0.28055641 0.083471328 -1.2359999
0.28287506 0.083471328 -1.2359999
0.28519371 0.083471328 -1.2359999
0.28751236 0.083471328 -1.2359999
0.28983101 0.083471328 -1.2359999
0.29214966 0.083471328 -1.2359999
0.29446831 0.083471328 -1.2359999
0.29678696 0.083471328 -1.2359999
0.29910558 0.083471328 -1.2359999
0.30142424 0.083471328 -1.2359999
0.30275992 0.0832012 -1.232
0.30383295 0.082863532 -1.227
0.30613473 0.082863532 -1.227
0.30843648 0.082863532 -1.227
0.31073824 0.082863532 -1.227
0.31304002 0.082863532 -1.227
0.31534177 0.082863532 -1.227
0.31764355 0.082863532 -1.227
0.32124907 0.0832012 -1.232
0.32224706 0.082863532 -1.227
0.32454884 0.082863532 -1.227
0.32685059 0.082863532 -1.227
0.34296295 0.082863532 -1.227
0.34526473 0.082863532 -1.227
0.34643343 0.082593404 -1.223
0.34758711 0.082323261 -1.219
0.34987387 0.082323261 -1.219
0.35071617 0.0819856 -1.214
0.35299355 0.0819856 -1.214
0.35673416 0.082323261 -1.219
0.35902089 0.082323261 -1.219
0.36130765 0.082323261 -1.219
0.36359441 0.082323261 -1.219
0.36588117 0.082323261 -1.219
0.36816794 0.082323261 -1.219
0.3704547 0.082323261 -1.219
0.37274143 0.082323261 -1.219
0.37502819 0.082323261 -1.219
0.37576732 0.0819856 -1.214
0.37804469 0.0819856 -1.214
0.37781584 0.081445329 -1.206
0.3800782 0.081445329 -1.206
0.38107246 0.081175201 -1.202
0.38173279 0.080837533 -1.197
0.38397828 0.080837533 -1.197
0.38622376 0.080837533 -1.197
0.38846925 0.080837533 -1.197
0.39071473 0.080837533 -1.197
0.39296022 0.080837533 -1.197
0.39520571 0.080837533 -1.197
0.39745119 0.080837533 -1.197
0.39969668 0.080837533 -1.197
0.40059897 0.08056739 -1.193
0.40283698 0.08056739 -1.193
0.40507495 0.08056739 -1.193
0.40594727 0.080297261 -1.189
0.40817776 0.080297261 -1.189
0.41040823 0.080297261 -1.189
0.41402689 0.08056739 -1.193
0.41626486 0.08056739 -1.193
0.41850284 0.08056739 -1.193
0.42074084 0.08056739 -1.193
0.42297882 0.08056739 -1.193
0.42664254 0.080837533 -1.197
0.42745477 0.08056739 -1.193
0.42969278 0.08056739 -1.193
0.51204979 0.095019549 -1.4069999
0.51066536 0.094276689 -1.396
0.51328421 0.094276689 -1.396
0.51368558 0.093871482 -1.39
0.51443601 0.093533814 -1.385
0.51703417 0.093533814 -1.385
0.51963228 0.093533814 -1.385
0.52223045 0.093533814 -1.385
0.52482861 0.093533814 -1.385
0.52742678 0.093533814 -1.385
0.53002495 0.093533814 -1.385
0.53262311 0.093533814 -1.385
0.53522128 0.093533814 -1.385
0.53781945 0.093533814 -1.385
0.54041761 0.093533814 -1.385
0.66222167 0.11352371 -1.681
0.66537511 0.11352371 -1.681
0.67210782 0.11413152 -1.6900001
0.67527819 0.11413152 -1.6900001
0.6784485 0.11413152 -1.6900001
0.67798883 0.11352371 -1.681
0.68114227 0.11352371 -1.681
0.68429571 0.11352371 -1.681
0.68744916 0.11352371 -1.681
0.6906026 0.11352371 -1.681
0.69375604 0.11352371 -1.681
0.69359285 0.11298344 -1.673
0.69339961 0.11244318 -1.665
0.69317633 0.11190291 -1.6569999
0.69292313 0.11136265 -1.649
0.69263989 0.11082238 -1.641
0.69571829 0.11082238 -1.641
0.6958158 0.11034964 -1.6339999
0.70529675 0.11136265 -1.649
0.71526355 0.11244318 -1.665
0.71838695 0.11244318 -1.665
0.72151041 0.11244318 -1.665
0.72463381 0.11244318 -1.665
0.72426051 0.11190291 -1.6569999
0.72736889 0.11190291 -1.6569999
0.73047733 0.11190291 -1.6569999
0.72340322 0.11034964 -1.6339999
0.72646844 0.11034964 -1.6339999
0.72953373 0.11034964 -1.6339999
0.73259902 0.11034964 -1.6339999
0.73566425 0.11034964 -1.6339999
0.73872954 0.11034964 -1.6339999
0.74497265 0.11082238 -1.641
0.74805105 0.11082238 -1.641
0.75112945 0.11082238 -1.641
0.75420785 0.11082238 -1.641
0.74344188 0.10879637 -1.6109999
0.74646395 0.10879637 -1.6109999
0.74576432 0.10825611 -1.603
0.74877143 0.10825611 -1.603
0.74849564 0.10778337 -1.596
0.74819362 0.10731064 -1.589
0.75117445 0.10731064 -1.589
0.75415534 0.10731064 -1.589
0.75713617 0.10731064 -1.589
0.75294161 0.10629763 -1.574
0.7558943 0.10629763 -1.574
0.76945353 0.10778337 -1.596
0.77583545 0.10825611 -1.603
0.77884257 0.10825611 -1.603
0.78184968 0.10825611 -1.603
0.7848568 0.10825611 -1.603
0.78786391 0.10825611 -1.603
0.79087102 0.10825611 -1.603
0.79041135 0.10778337 -1.596
0.78992552 0.10731064 -1.589
0.7929064 0.10731064 -1.589
0.7993933 0.10778337 -1.596
0.79886806 0.10731064 -1.589
0.8053813 0.10778337 -1.596
0.8083753 0.10778337 -1.596
-0.40858671 0.058369529 -0.889
-0.40783444 0.058500841 -0.89099997
-0.40616298 0.058500841 -0.89099997
-0.40585348 0.058697816 -0.89399999
-0.40417638 0.058697816 -0.89399999
-0.40339977 0.058829132 -0.89600003
-0.40261561 0.058960445 -0.898
-0.40093103 0.058960445 -0.898
-0.40235859 0.059420045 -0.90499997
-0.4006609 0.059420045 -0.90499997
-0.40028572 0.05961702 -0.90799999
-0.39726546 0.059420045 -0.90499997
-0.39556774 0.059420045 -0.90499997
-0.39822221 0.060076624 -0.91500002
-0.39737239 0.060207937 -0.917
-0.39565217 0.060207937 -0.917
-0.39393196 0.060207937 -0.917
-0.39349484 0.060404912 -0.92000002
-0.39176899 0.060404912 -0.92000002
-0.39004314 0.060404912 -0.92000002
-0.38831729 0.060404912 -0.92000002
-0.38659143 0.060404912 -0.92000002
-0.38695726 0.060733199 -0.92500001
-0.3860549 0.060864512 -0.92699999
-0.38555968 0.061061487 -0.93000001
-0.38464046 0.061192799 -0.93199998
-0.38412458 0.061389774 -0.935
-0.38318849 0.061521087 -0.93699998
-0.38143075 0.061521087 -0.93699998
-0.38088861 0.061718062 -0.94
-0.37993187 0.061849374 -0.94199997
-0.37936911 0.062046349 -0.94499999
-0.37879509 0.062243324 -0.94800001
-0.37701669 0.062243324 -0.94800001
-0.37602994 0.062374637 -0.94999999
-0.37424782 0.062374637 -0.94999999
-0.37246567 0.062374637 -0.94999999
-0.37185413 0.062571608 -0.95300001
-0.37006637 0.062571608 -0.95300001
-0.37021083 0.062899895 -0.958
-0.36841369 0.062899895 -0.958
-0.36776462 0.063096873 -0.96100003
-0.36596185 0.063096873 -0.96100003
-0.36415908 0.063096873 -0.96100003
-0.36311042 0.063228182 -0.963
-0.36130393 0.063228182 -0.963
-0.36061734 0.063425161 -0.96600002
-0.35991946 0.063622132 -0.96899998
-0.3581017 0.063622132 -0.96899998
-0.35628393 0.063622132 -0.96899998
-0.35739261 0.06414739 -0.977
-0.35555983 0.06414739 -0.977
-0.35372704 0.06414739 -0.977
-0.35405532 0.064541332 -0.98299998
-0.35221127 0.064541332 -0.98299998
-0.35036725 0.064541332 -0.98299998
-0.3485232 0.064541332 -0.98299998
-0.34738451 0.064672649 -0.98500001
-0.34553674 0.064672649 -0.98500001
-0.34473571 0.06486962 -0.98799998
-0.34288228 0.06486962 -0.98799998
-0.34309989 0.065263569 -0.99400002
-0.34123522 0.065263569 -0.99400002
-0.33937055 0.065263569 -0.99400002
-0.33852449 0.06546054 -0.99699998
-0.33868021 0.06585449 -1.003
-0.33847761 0.066182777 -1.008
-0.33758843 0.066379748 -1.011
-0.33569187 0.066379748 -1.011
-0.33379531 0.066379748 -1.011
-0.33189875 0.066379748 -1.011
-0.3309814 0.066576719 -1.0140001
-0.33005279 0.06677369 -1.017
-0.32814497 0.06677369 -1.017
-0.32719952 0.066970661 -1.02
-0.3262428 0.067167632 -1.023
-0.32432371 0.067167632 -1.023
-0.32240465 0.067167632 -1.023
-0.32048556 0.067167632 -1.023
-0.31950071 0.067364611 -1.026
-0.3188141 0.067627236 -1.03
-0.3168819 0.067627236 -1.03
-0.31494969 0.067627236 -1.03
-0.3139292 0.067824207 -1.033
-0.31199136 0.067824207 -1.033
-0.31185442 0.068218157 -1.039
-0.30990535 0.068218157 -1.039
-0.30973461 0.068612099 -1.045
-0.30777428 0.068612099 -1.045
-0.30669186 0.06880907 -1.048
-0.30588898 0.069071703 -1.052
-0.3039155 0.069071703 -1.052
-0.30194202 0.069071703 -1.052
-0.30082396 0.069268674 -1.0549999
-0.29884484 0.069268674 -1.0549999
-0.29686573 0.069268674 -1.0549999
-0.29572517 0.069465645 -1.058
-0.29457337 0.069662623 -1.061
-0.29258302 0.069662623 -1.061
-0.29141432 0.069859594 -1.064
-0.29050633 0.07012222 -1.068
-0.28850284 0.07012222 -1.068
-0.28730413 0.070319198 -1.071
-0.28609416 0.070516169 -1.074
-0.28513744 0.070778795 -1.0779999
-0.28390306 0.070975766 -1.081
-0.28187519 0.070975766 -1.081
-0.27984732 0.070975766 -1.081
-0.27781942 0.070975766 -1.081
-0.27681208 0.071238406 -1.085
-0.2747767 0.071238406 -1.085
-0.27274132 0.071238406 -1.085
-0.27145442 0.071435377 -1.0880001
-0.26941341 0.071435377 -1.0880001
-0.26810962 0.071632341 -1.091
-0.26703849 0.071894981 -1.095
-0.26571032 0.072091952 -1.098
-0.26533139 0.072551556 -1.105
-0.26325849 0.072551556 -1.105
-0.26213104 0.072814181 -1.109
-0.26098862 0.073076814 -1.113
-0.25959855 0.073273785 -1.1160001
-0.25750503 0.073273785 -1.1160001
-0.25541148 0.073273785 -1.1160001
-0.25331795 0.073273785 -1.1160001
-0.25122443 0.073273785 -1.1160001
-0.25002381 0.073536411 -1.12
-0.24858685 0.073733389 -1.123
-0.24823606 0.074258648 -1.131
-0.24611439 0.074258648 -1.131
-0.24463987 0.074455619 -1.1339999
-0.24251257 0.074455619 -1.1339999
-0.24038528 0.074455619 -1.1339999
-0.23825797 0.074455619 -1.1339999
-0.2369636 0.074718252 -1.138
-0.23482879 0.074718252 -1.138
-0.23269399 0.074718252 -1.138
-0.23136955 0.074980877 -1.142
-0.22922724 0.074980877 -1.142
-0.22788034 0.07524351 -1.146
-0.22573054 0.07524351 -1.146
-0.22650717 0.076228373 -1.161
-0.22432922 0.076228373 -1.161
-0.22291663 0.076490998 -1.165
-0.22073117 0.076490998 -1.165
-0.21854572 0.076490998 -1.165
-0.21636026 0.076490998 -1.165
-0.21491018 0.076753631 -1.169
-0.21271722 0.076753631 -1.169
-0.21052425 0.076753631 -1.169
-0.209757 0.077278897 -1.177
-0.20825437 0.077541523 -1.181
-0.20603891 0.077541523 -1.181
-0.20382343 0.077541523 -1.181
-0.20229079 0.077804148 -1.1849999
-0.20074315 0.078066781 -1.189
-0.19851267 0.078066781 -1.189
-0.19694252 0.078329407 -1.193
-0.19535737 0.078592047 -1.197
-0.19311188 0.078592047 -1.197
-0.19166367 0.078920335 -1.202
-0.1900391 0.07918296 -1.206
-0.18777673 0.07918296 -1.206
-0.18612967 0.079445593 -1.21
-0.1844676 0.079708219 -1.214
-0.18219021 0.079708219 -1.214
-0.17991284 0.079708219 -1.214
-0.17763546 0.079708219 -1.214
0.046549302 0.08574871 -1.306
0.048999265 0.08574871 -1.306
0.051252253 0.085420422 -1.301
0.053692836 0.085420422 -1.301
0.056133423 0.085420422 -1.301
0.058348894 0.085092135 -1.296
0.060780097 0.085092135 -1.296
0.062772334 0.084501214 -1.2869999
0.064933404 0.084172927 -1.2819999
0.06733834 0.084172927 -1.2819999
0.069199264 0.083516352 -1.272
0.071585447 0.083516352 -1.272
0.073971629 0.083516352 -1.272
0.076357812 0.083516352 -1.272
0.078496367 0.083253726 -1.268
0.080875047 0.083253726 -1.268
0.083253726 0.083253726 -1.268
0.085632406 0.083253726 -1.268
0.087664038 0.082925439 -1.263
0.089748189 0.082662806 -1.2589999
0.091744177 0.082334518 -1.2539999
0.094096594 0.082334518 -1.2539999
0.096449003 0.082334518 -1.2539999
0.099195369 0.082662806 -1.2589999
0.10187983 0.082925439 -1.263
0.10391895 0.082662806 -1.2589999
0.10661842 0.082925439 -1.263
0.10898772 0.082925439 -1.263
0.11215053 0.083516352 -1.272
0.11453671 0.083516352 -1.272
0.11692289 0.083516352 -1.272
0.11893389 0.083253726 -1.268
0.12131257 0.083253726 -1.268
0.12369125 0.083253726 -1.268
0.12606993 0.083253726 -1.268
0.12844861 0.083253726 -1.268
0.13082728 0.083253726 -1.268
0.13362616 0.083516352 -1.272
0.13601235 0.083516352 -1.272
0.13839853 0.083516352 -1.272
0.14133811 0.083844639 -1.277
0.14373367 0.083844639 -1.277
0.14670138 0.084172927 -1.2819999
0.14910632 0.084172927 -1.2819999
0.15151127 0.084172927 -1.2819999
0.15391621 0.084172927 -1.2819999
0.15632115 0.084172927 -1.2819999
0.15810704 0.083844639 -1.277
0.1605026 0.083844639 -1.277
0.16289815 0.083844639 -1.277
0.16464652 0.083516352 -1.272
0.1670327 0.083516352 -1.272
0.16941889 0.083516352 -1.272
0.17180507 0.083516352 -1.272
0.17419125 0.083516352 -1.272
0.17602216 0.083253726 -1.268
0.17840084 0.083253726 -1.268
0.18006667 0.082925439 -1.263
0.18243596 0.082925439 -1.263
0.18553688 0.083253726 -1.268
0.18717456 0.082925439 -1.263
0.18894355 0.082662806 -1.2589999
0.19130535 0.082662806 -1.2589999
0.19289801 0.082334518 -1.2539999
0.19525042 0.082334518 -1.2539999
0.19760284 0.082334518 -1.2539999
0.19995525 0.082334518 -1.2539999
0.20230767 0.082334518 -1.2539999
0.20466009 0.082334518 -1.2539999
0.2070125 0.082334518 -1.2539999
0.20936492 0.082334518 -1.2539999
0.21171734 0.082334518 -1.2539999
0.21406974 0.082334518 -1.2539999
0.21642216 0.082334518 -1.2539999
0.21633212 0.081415318 -1.24
0.21865828 0.081415318 -1.24
0.22027156 0.081152685 -1.2359999
0.22331057 0.081415318 -1.24
0.22563674 0.081415318 -1.24
0.22722751 0.081152685 -1.2359999
0.23121762 0.081743605 -1.245
0.23355316 0.081743605 -1.245
0.23664655 0.082006231 -1.249
0.23822421 0.081743605 -1.245
0.24055974 0.081743605 -1.245
0.24289528 0.081743605 -1.245
0.24424595 0.081415318 -1.24
0.24657211 0.081415318 -1.24
0.24889825 0.081415318 -1.24
0.25223741 0.081743605 -1.245
0.25457293 0.081743605 -1.245
0.25773385 0.082006231 -1.249
0.26007691 0.082006231 -1.249
0.26241994 0.082006231 -1.249
0.26391506 0.081743605 -1.245
0.26625058 0.081743605 -1.245
0.26750746 0.081415318 -1.24
0.26983362 0.081415318 -1.24
0.27215979 0.081415318 -1.24
0.27360046 0.081152685 -1.2359999
0.27591911 0.081152685 -1.2359999
0.27823776 0.081152685 -1.2359999
0.27964848 0.080890052 -1.232
0.28195962 0.080890052 -1.232
0.28427076 0.080890052 -1.232
0.2865819 0.080890052 -1.232
0.28889304 0.080890052 -1.232
0.29120418 0.080890052 -1.232
0.29351535 0.080890052 -1.232
0.29582649 0.080890052 -1.232
0.29813763 0.080890052 -1.232
0.30044878 0.080890052 -1.232
0.30374289 0.081152685 -1.2359999
0.30185196 0.080036506 -1.219
0.30413872 0.080036506 -1.219
0.30642548 0.080036506 -1.219
0.30871224 0.080036506 -1.219
0.31201953 0.080299139 -1.223
0.31431377 0.080299139 -1.223
0.31660804 0.080299139 -1.223
0.31994531 0.080561765 -1.227
0.32119656 0.080299139 -1.223
0.32349083 0.080299139 -1.223
0.3257851 0.080299139 -1.223
0.34296295 0.080561765 -1.227
0.34301358 0.080036506 -1.219
0.34530035 0.080036506 -1.219
0.3461614 0.079708219 -1.214
0.3484388 0.079708219 -1.214
0.35071617 0.079708219 -1.214
0.35299355 0.079708219 -1.214
0.35527092 0.079708219 -1.214
0.3575483 0.079708219 -1.214
0.36249328 0.080299139 -1.223
0.3659806 0.080561765 -1.227
0.36588117 0.080036506 -1.219
0.36816794 0.080036506 -1.219
0.3704547 0.080036506 -1.219
0.37274143 0.080036506 -1.219
0.37348995 0.079708219 -1.214
0.37576732 0.079708219 -1.214
0.37679911 0.079445593 -1.21
0.37781584 0.07918296 -1.206
0.3800782 0.07918296 -1.206
0.38107246 0.078920335 -1.202
0.38173279 0.078592047 -1.197
0.38397828 0.078592047 -1.197
0.38622376 0.078592047 -1.197
0.38717109 0.078329407 -1.193
0.39071473 0.078592047 -1.197
0.39296022 0.078592047 -1.197
0.39388505 0.078329407 -1.193
0.39612302 0.078329407 -1.193
0.398361 0.078329407 -1.193
0.40059897 0.078329407 -1.193
0.40148631 0.078066781 -1.189
0.4037168 0.078066781 -1.189
0.40594727 0.078066781 -1.189
0.40817776 0.078066781 -1.189
0.41040823 0.078066781 -1.189
0.41263872 0.078066781 -1.189
0.41486919 0.078066781 -1.189
0.41850284 0.078329407 -1.193
0.42074084 0.078329407 -1.193
0.42439705 0.078592047 -1.197
0.42521679 0.078329407 -1.193
0.42745477 0.078329407 -1.193
0.42969278 0.078329407 -1.193
0.51204979 0.092380114 -1.4069999
0.51066536 0.091657892 -1.396
0.51107806 0.091263942 -1.39
0.51368558 0.091263942 -1.39
0.51443601 0.090935655 -1.385
0.51703417 0.090935655 -1.385
0.51963228 0.090935655 -1.385
0.52223045 0.090935655 -1.385
0.52482861 0.090935655 -1.385
0.52933085 0.091263942 -1.39
0.53193837 0.091263942 -1.39
0.53454596 0.091263942 -1.39
0.53715348 0.091263942 -1.39
0.53976101 0.091263942 -1.39
0.54236859 0.091263942 -1.39
0.66222167 0.11037028 -1.681
0.66537511 0.11037028 -1.681
0.67210782 0.1109612 -1.6900001
0.67527819 0.1109612 -1.6900001
0.6784485 0.1109612 -1.6900001
0.67798883 0.11037028 -1.681
0.68114227 0.11037028 -1.681
0.68429571 0.11037028 -1.681
0.68744916 0.11037028 -1.681
0.6906026 0.11037028 -1.681
0.69045436 0.10984502 -1.673
0.69359285 0.10984502 -1.673
0.69339961 0.10931975 -1.665
0.69317633 0.1087945 -1.6569999
0.69292313 0.10826924 -1.649
0.69601655 0.10826924 -1.649
0.69910997 0.10826924 -1.649
0.69879669 0.10774398 -1.641
0.70529675 0.10826924 -1.649
0.71526355 0.10931975 -1.665
0.72183865 0.10984502 -1.673
0.72497714 0.10984502 -1.673
0.72463381 0.10931975 -1.665
0.72775722 0.10931975 -1.665
0.7343924 0.10984502 -1.673
0.72342384 0.10774398 -1.641
0.72340322 0.10728437 -1.6339999
0.72291172 0.10675912 -1.626
0.72596198 0.10675912 -1.626
0.72901225 0.10675912 -1.626
0.73206252 0.10675912 -1.626
0.73872954 0.10728437 -1.6339999
0.74497265 0.10774398 -1.641
0.74805105 0.10774398 -1.641
0.75479126 0.10826924 -1.649
0.75788468 0.10826924 -1.649
0.7609781 0.10826924 -1.649
0.74646395 0.10577425 -1.6109999
0.74948609 0.10577425 -1.6109999
0.74877143 0.105249 -1.603
0.75177854 0.105249 -1.603
0.75148958 0.10478938 -1.596
0.75448358 0.10478938 -1.596
0.75415534 0.10432979 -1.589
0.75713617 0.10432979 -1.589
0.75294161 0.10334492 -1.574
0.7558943 0.10334492 -1.574
0.76945353 0.10478938 -1.596
0.77583545 0.105249 -1.603
0.77884257 0.105249 -1.603
0.78184968 0.105249 -1.603
0.7848568 0.105249 -1.603
0.78786391 0.105249 -1.603
0.79087102 0.105249 -1.603
0.79041135 0.10478938 -1.596
0.78992552 0.10432979 -1.589
0.79639935 0.10478938 -1.596
0.7993933 0.10478938 -1.596
0.8023873 0.10478938 -1.596
0.8053813 0.10478938 -1.596
0.8083753 0.10478938 -1.596
-0.40858671 0.056701828 -0.889
-0.40783444 0.056829389 -0.89099997
-0.40616298 0.056829389 -0.89099997
-0.40585348 0.057020735 -0.89399999
-0.40508059 0.0571483 -0.89600003
-0.40339977 0.0571483 -0.89600003
-0.40261561 0.057275862 -0.898
-0.40093103 0.057275862 -0.898
-0.40235859 0.05772233 -0.90499997
-0.40198904 0.057913676 -0.90799999
-0.40028572 0.057913676 -0.90799999
-0.39858237 0.057913676 -0.90799999
-0.39687902 0.057913676 -0.90799999
-0.39909261 0.058487713 -0.917
-0.39737239 0.058487713 -0.917
-0.39565217 0.058487713 -0.917
-0.39393196 0.058487713 -0.917
-0.39349484 0.058679059 -0.92000002
-0.39176899 0.058679059 -0.92000002
-0.39004314 0.058679059 -0.92000002
-0.38916144 0.058806621 -0.92199999
-0.38743186 0.058806621 -0.92199999
-0.38695726 0.058997966 -0.92500001
-0.3860549 0.059125528 -0.92699999
-0.38555968 0.059316874 -0.93000001
-0.38464046 0.059444435 -0.93199998
-0.3828921 0.059444435 -0.93199998
-0.38237059 0.059635781 -0.935
-0.38143075 0.059763342 -0.93699998
-0.38088861 0.059954688 -0.94
-0.37993187 0.060082249 -0.94199997
-0.38057345 0.060464941 -0.94800001
-0.37879509 0.060464941 -0.94800001
-0.37701669 0.060464941 -0.94800001
-0.37602994 0.060592502 -0.94999999
-0.37424782 0.060592502 -0.94999999
-0.37246567 0.060592502 -0.94999999
-0.37185413 0.060783848 -0.95300001
-0.37006637 0.060783848 -0.95300001
-0.37021083 0.061102759 -0.958
-0.36841369 0.061102759 -0.958
-0.36776462 0.061294105 -0.96100003
-0.36596185 0.061294105 -0.96100003
-0.36415908 0.061294105 -0.96100003
-0.36235631 0.061294105 -0.96100003
-0.36130393 0.061421666 -0.963
-0.36061734 0.061613012 -0.96600002
-0.35991946 0.061804354 -0.96899998
-0.3581017 0.061804354 -0.96899998
-0.35628393 0.061804354 -0.96899998
-0.35739261 0.062314607 -0.977
-0.35555983 0.062314607 -0.977
-0.35481322 0.062505953 -0.98000002
-0.3547757 0.06282486 -0.98500001
-0.35221127 0.062697299 -0.98299998
-0.35036725 0.062697299 -0.98299998
-0.34923232 0.06282486 -0.98500001
-0.34738451 0.06282486 -0.98500001
-0.34553674 0.06282486 -0.98500001
-0.34473571 0.063016206 -0.98799998
-0.34288228 0.063016206 -0.98799998
-0.34206438 0.063207552 -0.991
-0.34123522 0.063398898 -0.99400002
-0.33937055 0.063398898 -0.99400002
-0.33852449 0.063590236 -0.99699998
-0.33868021 0.063972928 -1.003
-0.33847761 0.064291835 -1.008
-0.33758843 0.064483181 -1.011
-0.33569187 0.064483181 -1.011
-0.33478579 0.064674526 -1.0140001
-0.3328836 0.064674526 -1.0140001
-0.3309814 0.064674526 -1.0140001
-0.33005279 0.064865865 -1.017
-0.32814497 0.064865865 -1.017
-0.32719952 0.065057211 -1.02
-0.32528606 0.065057211 -1.02
-0.32432371 0.065248556 -1.023
-0.32240465 0.065248556 -1.023
-0.32048556 0.065248556 -1.023
-0.31950071 0.06543991 -1.026
-0.3188141 0.065695032 -1.03
-0.3168819 0.065695032 -1.03
-0.31586704 0.065886378 -1.033
-0.3139292 0.065886378 -1.033
-0.31380352 0.06626907 -1.039
-0.31185442 0.06626907 -1.039
-0.30990535 0.06626907 -1.039
-0.30973461 0.066651754 -1.045
-0.30777428 0.066651754 -1.045
-0.30669186 0.0668431 -1.048
-0.30472589 0.0668431 -1.048
-0.3039155 0.06709823 -1.052
-0.30194202 0.06709823 -1.052
-0.30082396 0.067289568 -1.0549999
-0.29884484 0.067289568 -1.0549999
-0.29770991 0.067480914 -1.058
-0.29572517 0.067480914 -1.058
-0.29457337 0.06767226 -1.061
-0.2934103 0.067863606 -1.064
-0.29250982 0.068118729 -1.068
-0.29050633 0.068118729 -1.068
-0.28931326 0.068310075 -1.071
-0.28810892 0.06850142 -1.074
-0.28609416 0.06850142 -1.074
-0.28513744 0.068756543 -1.0779999
-0.28311518 0.068756543 -1.0779999
-0.28187519 0.068947889 -1.081
-0.27984732 0.068947889 -1.081
-0.27781942 0.068947889 -1.081
-0.27579156 0.068947889 -1.081
-0.2747767 0.069203019 -1.085
-0.27274132 0.069203019 -1.085
-0.27145442 0.069394365 -1.0880001
-0.26941341 0.069394365 -1.0880001
-0.26810962 0.069585703 -1.091
-0.26703849 0.069840834 -1.095
-0.26571032 0.070032179 -1.098
-0.26461104 0.070287302 -1.102
-0.26325849 0.070478648 -1.105
-0.26213104 0.070733771 -1.109
-0.26098862 0.070988908 -1.113
-0.25959855 0.071180254 -1.1160001
-0.25750503 0.071180254 -1.1160001
-0.25541148 0.071180254 -1.1160001
-0.25331795 0.071180254 -1.1160001
-0.25122443 0.071180254 -1.1160001
-0.25002381 0.071435377 -1.12
-0.24947228 0.071881846 -1.127
-0.24823606 0.072136976 -1.131
-0.24611439 0.072136976 -1.131
-0.2439927 0.072136976 -1.131
-0.24187103 0.072136976 -1.131
-0.24038528 0.072328314 -1.1339999
-0.23825797 0.072328314 -1.1339999
-0.23613067 0.072328314 -1.1339999
-0.23400337 0.072328314 -1.1339999
-0.23351188 0.072838567 -1.142
-0.23136955 0.072838567 -1.142
-0.23003016 0.073093697 -1.146
-0.22788034 0.073093697 -1.146
-0.22573054 0.073093697 -1.146
-0.22650717 0.074050419 -1.161
-0.22432922 0.074050419 -1.161
-0.22291663 0.074305542 -1.165
-0.22073117 0.074305542 -1.165
-0.21854572 0.074305542 -1.165
-0.21636026 0.074305542 -1.165
-0.21491018 0.074560672 -1.169
-0.21271722 0.074560672 -1.169
-0.21052425 0.074560672 -1.169
-0.21046984 0.075326048 -1.181
-0.20825437 0.075326048 -1.181
-0.20603891 0.075326048 -1.181
-0.20451376 0.075581171 -1.1849999
-0.20229079 0.075581171 -1.1849999
-0.20074315 0.075836301 -1.189
-0.19851267 0.075836301 -1.189
-0.19694252 0.076091424 -1.193
-0.19535737 0.076346554 -1.197
-0.19391853 0.076665469 -1.202
-0.19230147 0.076920591 -1.206
-0.1900391 0.076920591 -1.206
-0.18777673 0.076920591 -1.206
-0.18612967 0.077175722 -1.21
-0.1844676 0.077430844 -1.214
-0.18219021 0.077430844 -1.214
-0.17991284 0.077430844 -1.214
0.046371087 0.082979843 -1.301
0.04862408 0.082660936 -1.296
0.051055282 0.082660936 -1.296
0.053486485 0.082660936 -1.296
0.055701956 0.082342021 -1.291
0.058348894 0.082660936 -1.296
0.060545605 0.082342021 -1.291
0.062528461 0.081767984 -1.2819999
0.064680152 0.081449077 -1.277
0.066813082 0.081130169 -1.272
0.069199264 0.081130169 -1.272
0.071585447 0.081130169 -1.272
0.073739015 0.080875047 -1.268
0.076117694 0.080875047 -1.268
0.07818684 0.080556139 -1.263
0.080556139 0.080556139 -1.263
0.082925439 0.080556139 -1.263
0.085024595 0.080301009 -1.2589999
0.087386392 0.080301009 -1.2589999
0.089748189 0.080301009 -1.2589999
0.091744177 0.079982102 -1.2539999
0.094096594 0.079982102 -1.2539999
0.096833572 0.080301009 -1.2589999
0.099195369 0.080301009 -1.2589999
0.10187983 0.080556139 -1.263
0.10391895 0.080301009 -1.2589999
0.10661842 0.080556139 -1.263
0.10976435 0.081130169 -1.272
0.11179786 0.080875047 -1.268
0.11417654 0.080875047 -1.268
0.11655521 0.080875047 -1.268
0.11893389 0.080875047 -1.268
0.12131257 0.080875047 -1.268
0.12369125 0.080875047 -1.268
0.12606993 0.080875047 -1.268
0.12844861 0.080875047 -1.268
0.13082728 0.080875047 -1.268
0.13320597 0.080875047 -1.268
0.13601235 0.081130169 -1.272
0.13839853 0.081130169 -1.272
0.14078471 0.081130169 -1.272
0.14373367 0.081449077 -1.277
0.14612924 0.081449077 -1.277
0.14910632 0.081767984 -1.2819999
0.15151127 0.081767984 -1.2819999
0.15331592 0.081449077 -1.277
0.15571147 0.081449077 -1.277
0.15810704 0.081449077 -1.277
0.15987416 0.081130169 -1.272
0.16226034 0.081130169 -1.272
0.16464652 0.081130169 -1.272
0.1670327 0.081130169 -1.272
0.16941889 0.081130169 -1.272
0.17180507 0.081130169 -1.272
0.17364348 0.080875047 -1.268
0.17602216 0.080875047 -1.268
0.17840084 0.080875047 -1.268
0.18006667 0.080556139 -1.263
0.1831582 0.080875047 -1.268
0.18480526 0.080556139 -1.263
0.18658176 0.080301009 -1.2589999
0.18894355 0.080301009 -1.2589999
0.19130535 0.080301009 -1.2589999
0.19289801 0.079982102 -1.2539999
0.19525042 0.079982102 -1.2539999
0.19760284 0.079982102 -1.2539999
0.19995525 0.079982102 -1.2539999
0.20230767 0.079982102 -1.2539999
0.20466009 0.079982102 -1.2539999
0.2070125 0.079982102 -1.2539999
0.20936492 0.079982102 -1.2539999
0.21171734 0.079982102 -1.2539999
0.21406974 0.079982102 -1.2539999
0.21555923 0.079663195 -1.249
0.21790227 0.079663195 -1.249
0.21953997 0.079408072 -1.245
0.22098443 0.079089165 -1.24
0.22331057 0.079089165 -1.24
0.22490886 0.078834035 -1.2359999
0.22722751 0.078834035 -1.2359999
0.22954616 0.078834035 -1.2359999
0.23186481 0.078834035 -1.2359999
0.23418345 0.078834035 -1.2359999
0.23726749 0.079089165 -1.24
0.23959364 0.079089165 -1.24
0.2419198 0.079089165 -1.24
0.24345805 0.078834035 -1.2359999
0.2457767 0.078834035 -1.2359999
0.24889825 0.079089165 -1.24
0.2512244 0.079089165 -1.24
0.25457293 0.079408072 -1.245
0.25690848 0.079408072 -1.245
0.26007691 0.079663195 -1.249
0.26241994 0.079663195 -1.249
0.26391506 0.079408072 -1.245
0.267106 0.079663195 -1.249
0.26858613 0.079408072 -1.245
0.26983362 0.079089165 -1.24
0.27215979 0.079089165 -1.24
0.27448592 0.079089165 -1.24
0.27591911 0.078834035 -1.2359999
0.27823776 0.078834035 -1.2359999
0.27964848 0.078578912 -1.232
0.28287506 0.078834035 -1.2359999
0.28427076 0.078578912 -1.232
0.2865819 0.078578912 -1.232
0.28889304 0.078578912 -1.232
0.29120418 0.078578912 -1.232
0.29351535 0.078578912 -1.232
0.29582649 0.078578912 -1.232
0.29813763 0.078578912 -1.232
0.30142424 0.078834035 -1.2359999
0.30374289 0.078834035 -1.2359999
0.30507106 0.078578912 -1.232
0.30413872 0.077749752 -1.219
0.30642548 0.077749752 -1.219
0.30871224 0.077749752 -1.219
0.31099901 0.077749752 -1.219
0.31328577 0.077749752 -1.219
0.31660804 0.078004882 -1.223
0.31994531 0.078260005 -1.227
0.32119656 0.078004882 -1.223
0.32349083 0.078004882 -1.223
0.3257851 0.078004882 -1.223
0.34667167 0.078578912 -1.232
0.34530035 0.077749752 -1.219
0.3461614 0.077430844 -1.214
0.35102195 0.078004882 -1.223
0.34956062 0.077175722 -1.21
0.35183048 0.077175722 -1.21
0.35527092 0.077430844 -1.214
0.3575483 0.077430844 -1.214
0.36367884 0.078260005 -1.227
0.3659806 0.078260005 -1.227
0.36828238 0.078260005 -1.227
0.36816794 0.077749752 -1.219
0.3704547 0.077749752 -1.219
0.37274143 0.077749752 -1.219
0.37348995 0.077430844 -1.214
0.37576732 0.077430844 -1.214
0.37555346 0.076920591 -1.206
0.37781584 0.076920591 -1.206
0.37881759 0.076665469 -1.202
0.38107246 0.076665469 -1.202
0.38173279 0.076346554 -1.197
0.38397828 0.076346554 -1.197
0.38622376 0.076346554 -1.197
0.38846925 0.076346554 -1.197
0.38940907 0.076091424 -1.193
0.39164704 0.076091424 -1.193
0.39388505 0.076091424 -1.193
0.39479488 0.075836301 -1.189
0.398361 0.076091424 -1.193
0.39925584 0.075836301 -1.189
0.40148631 0.075836301 -1.189
0.4037168 0.075836301 -1.189
0.40594727 0.075836301 -1.189
0.40817776 0.075836301 -1.189
0.41040823 0.075836301 -1.189
0.41263872 0.075836301 -1.189
0.41486919 0.075836301 -1.189
0.41709965 0.075836301 -1.189
0.42074084 0.076091424 -1.193
0.42297882 0.076091424 -1.193
0.42521679 0.076091424 -1.193
0.42602158 0.075836301 -1.189
0.42825207 0.075836301 -1.189
0.43048254 0.075836301 -1.189
0.51204979 0.089740686 -1.4069999
0.50847054 0.088656403 -1.39
0.51107806 0.088656403 -1.39
0.51183784 0.088337496 -1.385
0.51443601 0.088337496 -1.385
0.51479429 0.087954797 -1.3789999
0.51738119 0.087954797 -1.3789999
0.52223045 0.088337496 -1.385
0.52482861 0.088337496 -1.385
0.52933085 0.088656403 -1.39
0.53002495 0.088337496 -1.385
0.53262311 0.088337496 -1.385
0.53522128 0.088337496 -1.385
0.53781945 0.088337496 -1.385
0.54236859 0.088656403 -1.39
0.67210782 0.10779088 -1.6900001
0.67527819 0.10779088 -1.6900001
0.6784485 0.10779088 -1.6900001
0.68161881 0.10779088 -1.6900001
0.68114227 0.10721684 -1.681
0.68429571 0.10721684 -1.681
0.68417752 0.10670659 -1.673
0.68731594 0.10670659 -1.673
0.69045436 0.10670659 -1.673
0.69359285 0.10670659 -1.673
0.69673127 0.10670659 -1.673
0.69652301 0.10619634 -1.665
0.69628477 0.10568608 -1.6569999
0.69939315 0.10568608 -1.6569999
0.69910997 0.10517584 -1.649
0.70561004 0.10568608 -1.6569999
0.70871842 0.10568608 -1.6569999
0.71526355 0.10619634 -1.665
0.72183865 0.10670659 -1.673
0.72497714 0.10670659 -1.673
0.72463381 0.10619634 -1.665
0.72775722 0.10619634 -1.665
0.73088068 0.10619634 -1.665
0.72342384 0.10466558 -1.641
0.71986151 0.10370886 -1.626
0.72291172 0.10370886 -1.626
0.72596198 0.10370886 -1.626
0.72901225 0.10370886 -1.626
0.73566425 0.1042191 -1.6339999
0.73872954 0.1042191 -1.6339999
0.74497265 0.10466558 -1.641
0.74805105 0.10466558 -1.641
0.75112945 0.10466558 -1.641
0.75420785 0.10466558 -1.641
0.75728625 0.10466558 -1.641
0.74970752 0.1031986 -1.618
0.75274277 0.1031986 -1.618
0.75250822 0.10275213 -1.6109999
0.75553036 0.10275213 -1.6109999
0.75478566 0.10224188 -1.603
0.75448358 0.10179541 -1.596
0.75415534 0.10134894 -1.589
0.763807 0.10224188 -1.603
0.75629014 0.10083868 -1.581
0.75925595 0.10083868 -1.581
0.76945353 0.10179541 -1.596
0.77583545 0.10224188 -1.603
0.77884257 0.10224188 -1.603
0.78184968 0.10224188 -1.603
0.7848568 0.10224188 -1.603
0.78786391 0.10224188 -1.603
0.79087102 0.10224188 -1.603
0.79041135 0.10179541 -1.596
0.79340535 0.10179541 -1.596
0.7929064 0.10134894 -1.589
0.79588723 0.10134894 -1.589
0.79886806 0.10134894 -1.589
0.80184895 0.10134894 -1.589
0.80482978 0.10134894 -1.589
-0.40858671 0.055034127 -0.889
-0.40783444 0.055157937 -0.89099997
-0.40616298 0.055157937 -0.89099997
-0.40585348 0.055343654 -0.89399999
-0.40508059 0.055467468 -0.89600003
-0.40339977 0.055467468 -0.89600003
-0.40261561 0.055591278 -0.898
-0.40316337 0.055900805 -0.903
-0.40235859 0.056024615 -0.90499997
-0.40198904 0.056210335 -0.90799999
-0.40028572 0.056210335 -0.90799999
-0.39858237 0.056210335 -0.90799999
-0.39687902 0.056210335 -0.90799999
-0.39909261 0.056767486 -0.917
-0.39737239 0.056767486 -0.917
-0.39565217 0.056767486 -0.917
-0.39522073 0.056953203 -0.92000002
-0.39349484 0.056953203 -0.92000002
-0.39176899 0.056953203 -0.92000002
-0.39089105 0.057077013 -0.92199999
-0.38916144 0.057077013 -0.92199999
-0.38869247 0.05726273 -0.92500001
-0.3877939 0.05738654 -0.92699999
-0.3860549 0.05738654 -0.92699999
-0.38555968 0.05757226 -0.93000001
-0.38381505 0.05757226 -0.93000001
-0.38207045 0.05757226 -0.93000001
-0.38237059 0.057881787 -0.935
-0.38061661 0.057881787 -0.935
-0.38088861 0.058191314 -0.94
-0.37912524 0.058191314 -0.94
-0.37936911 0.058500845 -0.94499999
-0.37879509 0.058686562 -0.94800001
-0.37701669 0.058686562 -0.94800001
-0.37602994 0.058810372 -0.94999999
-0.37424782 0.058810372 -0.94999999
-0.37246567 0.058810372 -0.94999999
-0.37185413 0.058996089 -0.95300001
-0.37006637 0.058996089 -0.95300001
-0.37021083 0.059305616 -0.958
-0.36841369 0.059305616 -0.958
-0.36776462 0.059491336 -0.96100003
-0.36596185 0.059491336 -0.96100003
-0.36415908 0.059491336 -0.96100003
-0.36235631 0.059491336 -0.96100003
-0.36130393 0.059615146 -0.963
-0.36061734 0.059800863 -0.96600002
-0.35991946 0.059986576 -0.96899998
-0.3581017 0.059986576 -0.96899998
-0.35738698 0.060172297 -0.972
-0.35629517 0.060296107 -0.97399998
-0.35555983 0.060481824 -0.977
-0.35481322 0.060667541 -0.98000002
-0.3547757 0.060977072 -0.98500001
-0.35221127 0.060853258 -0.98299998
-0.35036725 0.060853258 -0.98299998
-0.3485232 0.060853258 -0.98299998
-0.34738451 0.060977072 -0.98500001
-0.34553674 0.060977072 -0.98500001
-0.34473571 0.061162785 -0.98799998
-0.34288228 0.061162785 -0.98799998
-0.34206438 0.061348505 -0.991
-0.34123522 0.061534222 -0.99400002
-0.33937055 0.061534222 -0.99400002
-0.33852449 0.061719935 -0.99699998
-0.33868021 0.062091373 -1.003
-0.33780605 0.06227709 -1.006
-0.33758843 0.06258662 -1.011
-0.33569187 0.06258662 -1.011
-0.33478579 0.062772341 -1.0140001
-0.33189875 0.06258662 -1.011
-0.3309814 0.062772341 -1.0140001
-0.32907921 0.062772341 -1.0140001
-0.32814497 0.062958047 -1.017
-0.32623717 0.062958047 -1.017
-0.32432935 0.062958047 -1.017
-0.32337263 0.063143767 -1.02
-0.32240465 0.063329488 -1.023
-0.32048556 0.063329488 -1.023
-0.31950071 0.063515201 -1.026
-0.3188141 0.063762821 -1.03
-0.3168819 0.063762821 -1.03
-0.31586704 0.063948542 -1.033
-0.3139292 0.063948542 -1.033
-0.31380352 0.064319976 -1.039
-0.31365532 0.064691409 -1.045
-0.31258979 0.064877123 -1.048
-0.31062379 0.064877123 -1.048
-0.30865782 0.064877123 -1.048
-0.30786246 0.06512475 -1.052
-0.30588898 0.06512475 -1.052
-0.3039155 0.06512475 -1.052
-0.30194202 0.06512475 -1.052
-0.30082396 0.065310463 -1.0549999
-0.29884484 0.065310463 -1.0549999
-0.29686573 0.065310463 -1.0549999
-0.29572517 0.065496184 -1.058
-0.29374045 0.065496184 -1.058
-0.29258302 0.065681897 -1.061
-0.29250982 0.066115238 -1.068
-0.29050633 0.066115238 -1.068
-0.29012367 0.066486672 -1.074
-0.28810892 0.066486672 -1.074
-0.28715968 0.066734292 -1.0779999
-0.28513744 0.066734292 -1.0779999
-0.28390306 0.066920012 -1.081
-0.28187519 0.066920012 -1.081
-0.27984732 0.066920012 -1.081
-0.27781942 0.066920012 -1.081
-0.27579156 0.066920012 -1.081
-0.2747767 0.06716764 -1.085
-0.27274132 0.06716764 -1.085
-0.27070594 0.06716764 -1.085
-0.26941341 0.067353353 -1.0880001
-0.26810962 0.067539066 -1.091
-0.26703849 0.067786694 -1.095
-0.26571032 0.067972414 -1.098
-0.26461104 0.068220034 -1.102
-0.26325849 0.068405747 -1.105
-0.26213104 0.068653367 -1.109
-0.26005065 0.068653367 -1.109
-0.2589007 0.068900995 -1.113
-0.25681281 0.068900995 -1.113
-0.25541148 0.069086716 -1.1160001
-0.25331795 0.069086716 -1.1160001
-0.25122443 0.069086716 -1.1160001
-0.25002381 0.069334336 -1.12
-0.24947228 0.069767669 -1.127
-0.24823606 0.070015296 -1.131
-0.24524394 0.069767669 -1.127
-0.2439927 0.070015296 -1.131
-0.24187103 0.070015296 -1.131
-0.23974936 0.070015296 -1.131
-0.23825797 0.07020101 -1.1339999
-0.23613067 0.07020101 -1.1339999
-0.23482879 0.070448637 -1.138
-0.23351188 0.070696257 -1.142
-0.23136955 0.070696257 -1.142
-0.23003016 0.070943885 -1.146
-0.22788034 0.070943885 -1.146
-0.22651841 0.071191505 -1.15
-0.22650717 0.071872465 -1.161
-0.22432922 0.071872465 -1.161
-0.22291663 0.072120085 -1.165
-0.22073117 0.072120085 -1.165
-0.21854572 0.072120085 -1.165
-0.21636026 0.072120085 -1.165
-0.21491018 0.072367713 -1.169
-0.21271722 0.072367713 -1.169
-0.21052425 0.072367713 -1.169
-0.21118268 0.0733582 -1.1849999
-0.20895971 0.0733582 -1.1849999
-0.20603891 0.07311058 -1.181
-0.20451376 0.0733582 -1.1849999
-0.20229079 0.0733582 -1.1849999
-0.20074315 0.073605821 -1.189
-0.19851267 0.073605821 -1.189
-0.19694252 0.073853441 -1.193
-0.19535737 0.074101068 -1.197
-0.19391853 0.074410595 -1.202
-0.19166367 0.074410595 -1.202
-0.18940879 0.074410595 -1.202
0.043930504 0.080539256 -1.301
0.046371087 0.080539256 -1.301
0.04862408 0.080229729 -1.296
0.050858308 0.079920202 -1.291
0.053280134 0.079920202 -1.291
0.055529371 0.079672575 -1.2869999
0.058123782 0.079920202 -1.291
0.06035801 0.079672575 -1.2869999
0.062528461 0.079363048 -1.2819999
0.064680152 0.079053521 -1.277
0.066813082 0.078743987 -1.272
0.069199264 0.078743987 -1.272
0.071585447 0.078743987 -1.272
0.073739015 0.078496367 -1.268
0.076117694 0.078496367 -1.268
0.07818684 0.07818684 -1.263
0.080556139 0.07818684 -1.263
0.082925439 0.07818684 -1.263
0.085024595 0.077939212 -1.2589999
0.087386392 0.077939212 -1.2589999
0.089391761 0.077629685 -1.2539999
0.091744177 0.077629685 -1.2539999
0.094096594 0.077629685 -1.2539999
0.096449003 0.077629685 -1.2539999
0.099195369 0.077939212 -1.2589999
0.10155716 0.077939212 -1.2589999
0.10391895 0.077939212 -1.2589999
0.10661842 0.07818684 -1.263
0.10941918 0.078496367 -1.268
0.11179786 0.078496367 -1.268
0.11417654 0.078496367 -1.268
0.11655521 0.078496367 -1.268
0.11893389 0.078496367 -1.268
0.12131257 0.078496367 -1.268
0.12369125 0.078496367 -1.268
0.1255728 0.07818684 -1.263
0.1279421 0.07818684 -1.263
0.13082728 0.078496367 -1.268
0.13320597 0.078496367 -1.268
0.13558464 0.078496367 -1.268
0.13796332 0.078496367 -1.268
0.140342 0.078496367 -1.268
0.14272067 0.078496367 -1.268
0.14555708 0.078743987 -1.272
0.14794326 0.078743987 -1.272
0.15092035 0.079053521 -1.277
0.15271562 0.078743987 -1.272
0.15510179 0.078743987 -1.272
0.15748797 0.078743987 -1.272
0.15987416 0.078743987 -1.272
0.16226034 0.078743987 -1.272
0.16464652 0.078743987 -1.272
0.1670327 0.078743987 -1.272
0.16941889 0.078743987 -1.272
0.17180507 0.078743987 -1.272
0.17364348 0.078496367 -1.268
0.17602216 0.078496367 -1.268
0.17769738 0.07818684 -1.263
0.18006667 0.07818684 -1.263
0.1831582 0.078496367 -1.268
0.18480526 0.07818684 -1.263
0.18658176 0.077939212 -1.2589999
0.18894355 0.077939212 -1.2589999
0.1905456 0.077629685 -1.2539999
0.19366714 0.077939212 -1.2589999
0.19525042 0.077629685 -1.2539999
0.19760284 0.077629685 -1.2539999
0.19915798 0.077320158 -1.249
0.20150103 0.077320158 -1.249
0.20466009 0.077629685 -1.2539999
0.2070125 0.077629685 -1.2539999
0.20936492 0.077629685 -1.2539999
0.21171734 0.077629685 -1.2539999
0.2132162 0.077320158 -1.249
0.21555923 0.077320158 -1.249
0.21790227 0.077320158 -1.249
0.21953997 0.077072538 -1.245
0.22098443 0.076763012 -1.24
0.22331057 0.076763012 -1.24
0.22490886 0.076515384 -1.2359999
0.22722751 0.076515384 -1.2359999
0.22880329 0.076267764 -1.232
0.23111445 0.076267764 -1.232
0.23418345 0.076515384 -1.2359999
0.23726749 0.076763012 -1.24
0.23959364 0.076763012 -1.24
0.2419198 0.076763012 -1.24
0.24424595 0.076763012 -1.24
0.24657211 0.076763012 -1.24
0.24889825 0.076763012 -1.24
0.25223741 0.077072538 -1.245
0.25457293 0.077072538 -1.245
0.25690848 0.077072538 -1.245
0.25924399 0.077072538 -1.245
0.26157954 0.077072538 -1.245
0.26391506 0.077072538 -1.245
0.26625058 0.077072538 -1.245
