# .PCD v0.7 - Point Cloud Data file format
VERSION 0.7
FIELDS x y z
SIZE 4 4 4
TYPE F F F
COUNT 1 1 1
WIDTH 1574
HEIGHT 1
VIEWPOINT 0 0 0 1 0 0 0
POINTS 1574
DATA ascii
-0.32472518 0.117617 -1.363
-0.32335013 0.11804846 -1.368
-0.32078385 0.11804846 -1.368
-0.31821758 0.11804846 -1.368
-0.31449762 0.117617 -1.363
-0.31308505 0.11804846 -1.368
-0.31051877 0.11804846 -1.368
-0.30795249 0.11804846 -1.368
-0.30538622 0.11804846 -1.368
-0.30281997 0.11804846 -1.368
-0.30025369 0.11804846 -1.368
-0.29768741 0.11804846 -1.368
-0.29512113 0.11804846 -1.368
-0.29255489 0.11804846 -1.368
-0.28998861 0.11804846 -1.368
-0.28742233 0.11804846 -1.368
-0.28610542 0.11856621 -1.374
-0.28352788 0.11856621 -1.374
-0.28095037 0.11856621 -1.374
-0.27837282 0.11856621 -1.374
-0.27579531 0.11856621 -1.374
-0.2732178 0.11856621 -1.374
-0.27162513 0.11899767 -1.3789999
-0.2690382 0.11899767 -1.3789999
-0.2664513 0.11899767 -1.3789999
-0.26501247 0.11951543 -1.385
-0.26241431 0.11951543 -1.385
-0.26075411 0.1199469 -1.39
-0.25814658 0.1199469 -1.39
-0.2566421 0.12046465 -1.396
-0.24456111 0.11718553 -1.358
-0.2420136 0.11718553 -1.358
-0.23840806 0.11666777 -1.352
-0.23587181 0.11666777 -1.352
-0.23333554 0.11666777 -1.352
-0.23079929 0.11666777 -1.352
-0.24658336 0.13832726 -1.603
-0.24357624 0.13832726 -1.603
-0.24056913 0.13832726 -1.603
-0.23756202 0.13832726 -1.603
-0.2345549 0.13832726 -1.603
-0.23053665 0.13772319 -1.596
-0.22540411 0.1364288 -1.581
-0.22145341 0.13582475 -1.574
-0.2185007 0.13582475 -1.574
-0.21554798 0.13582475 -1.574
-0.21259527 0.13582475 -1.574
-0.21257275 0.13772319 -1.596
-0.20957877 0.13772319 -1.596
-0.20749088 0.13832726 -1.603
-0.20448376 0.13832726 -1.603
-0.20147665 0.13832726 -1.603
-0.19846953 0.13832726 -1.603
-0.19546242 0.13832726 -1.603
-0.19245531 0.13832726 -1.603
-0.18944819 0.13832726 -1.603
-0.17741974 0.13832726 -1.603
-0.17441262 0.13832726 -1.603
-0.17140551 0.13832726 -1.603
-0.16923879 0.13901758 -1.6109999
-0.16621667 0.13901758 -1.6109999
-0.16471407 0.14031199 -1.626
-0.1616638 0.14031199 -1.626
-0.15861355 0.14031199 -1.626
-0.15632866 0.14100231 -1.6339999
-0.15326339 0.14100231 -1.6339999
-0.15019812 0.14100231 -1.6339999
-0.14713286 0.14100231 -1.6339999
-0.14406759 0.14100231 -1.6339999
-0.14100231 0.14100231 -1.6339999
-0.13793705 0.14100231 -1.6339999
-0.16830084 0.17595088 -2.039
-0.16350783 0.17491536 -2.027
-0.15875988 0.17387986 -2.0150001
-0.15497987 0.17387986 -2.0150001
-0.15119988 0.17387986 -2.0150001
-0.14741988 0.17387986 -2.0150001
-0.14363989 0.17387986 -2.0150001
-0.13985988 0.17387986 -2.0150001
-0.13689028 0.17491536 -2.027
-0.13308777 0.17491536 -2.027
-0.12928526 0.17491536 -2.027
-0.12548275 0.17491536 -2.027
-0.12168025 0.17491536 -2.027
-0.11787774 0.17491536 -2.027
-0.11339991 0.17387986 -2.0150001
-0.10961992 0.17387986 -2.0150001
-0.10583992 0.17387986 -2.0150001
-0.10205992 0.17387986 -2.0150001
-0.098279923 0.17387986 -2.0150001
-0.094499923 0.17387986 -2.0150001
-0.090719931 0.17387986 -2.0150001
-0.086939931 0.17387986 -2.0150001
-0.084645674 0.1769864 -2.0510001
-0.080798142 0.1769864 -2.0510001
-0.075599939 0.17387986 -2.0150001
-0.071819946 0.17387986 -2.0150001
-0.068039946 0.17387986 -2.0150001
-0.064259946 0.17387986 -2.0150001
-0.06011977 0.17284434 -2.003
-0.056362286 0.17284434 -2.003
-0.052604798 0.17284434 -2.003
-0.048847314 0.17284434 -2.003
-0.04508983 0.17284434 -2.003
-0.041332342 0.17284434 -2.003
-0.037799969 0.17387986 -2.0150001
-0.034019973 0.17387986 -2.0150001
-0.030239975 0.17387986 -2.0150001
-0.026459979 0.17387986 -2.0150001
-0.022815047 0.17491536 -2.027
-0.019012539 0.17491536 -2.027
-0.015210032 0.17491536 -2.027
-0.011339991 0.17387986 -2.0150001
-0.0075599938 0.17387986 -2.0150001
-0.0037799969 0.17387986 -2.0150001
0 0.17387986 -2.0150001
0.0037574857 0.17284434 -2.003
0.0075149713 0.17284434 -2.003
0.011272457 0.17284434 -2.003
0.014947401 0.17189512 -1.992
0.018571697 0.17085961 -1.98
0.022162223 0.16991039 -1.969
0.026000375 0.17085961 -1.98
0.029714715 0.17085961 -1.98
0.033429053 0.17085961 -1.98
0.037143394 0.17085961 -1.98
0.040857732 0.17085961 -1.98
0.066858105 0.17085961 -1.98
0.071392231 0.17284434 -2.003
0.075149715 0.17284434 -2.003
0.078907199 0.17284434 -2.003
0.082664683 0.17284434 -2.003
0.086422168 0.17284434 -2.003
0.090179659 0.17284434 -2.003
0.093421258 0.17189512 -1.992
0.097158112 0.17189512 -1.992
0.10028716 0.17085961 -1.98
0.1040015 0.17085961 -1.98
0.10771584 0.17085961 -1.98
0.11272457 0.17284434 -2.003
0.11648206 0.17284434 -2.003
0.12023954 0.17284434 -2.003
0.12331606 0.17189512 -1.992
0.12705292 0.17189512 -1.992
0.13078976 0.17189512 -1.992
0.13452661 0.17189512 -1.992
0.15029943 0.17284434 -2.003
0.15497987 0.17387986 -2.0150001
0.15875988 0.17387986 -2.0150001
0.16253987 0.17387986 -2.0150001
0.16532937 0.17284434 -2.003
0.16908686 0.17284434 -2.003
0.17284434 0.17284434 -2.003
0.17660183 0.17284434 -2.003
0.17729779 0.16991039 -1.969
0.1809915 0.16991039 -1.969
0.2265747 0.17085961 -1.98
0.23168473 0.17189512 -1.992
0.23400338 0.17085961 -1.98
0.23771772 0.17085961 -1.98
0.24289528 0.17189512 -1.992
0.24663213 0.17189512 -1.992
0.24886073 0.17085961 -1.98
0.25257507 0.17085961 -1.98
0.25628942 0.17085961 -1.98
0.26000375 0.17085961 -1.98
0.2637181 0.17085961 -1.98
0.26743242 0.17085961 -1.98
0.27114677 0.17085961 -1.98
0.27652693 0.17189512 -1.992
0.28026378 0.17189512 -1.992
0.27915323 0.16896117 -1.9579999
0.28441522 0.16991039 -1.969
0.28810892 0.16991039 -1.969
0.2934328 0.17085961 -1.98
0.29714715 0.17085961 -1.98
0.30086148 0.17085961 -1.98
0.30288374 0.16991039 -1.969
0.30657744 0.16991039 -1.969
0.31027114 0.16991039 -1.969
0.34568867 0.17284434 -2.003
0.34944618 0.17284434 -2.003
0.35320365 0.17284434 -2.003
0.35696113 0.17284434 -2.003
0.36071864 0.17284434 -2.003
0.36447611 0.17284434 -2.003
0.36823359 0.17284434 -2.003
0.37199107 0.17284434 -2.003
0.37368503 0.17189512 -1.992
0.37742189 0.17189512 -1.992
0.37886262 0.17085961 -1.98
0.38257694 0.17085961 -1.98
0.3862913 0.17085961 -1.98
0.39000562 0.17085961 -1.98
0.39371997 0.17085961 -1.98
0.39522633 0.16991039 -1.969
0.40114865 0.17085961 -1.98
0.404863 0.17085961 -1.98
0.40630743 0.16991039 -1.969
0.41000116 0.16991039 -1.969
0.416006 0.17085961 -1.98
0.41738856 0.16991039 -1.969
0.42343467 0.17085961 -1.98
0.42714903 0.17085961 -1.98
0.43086335 0.17085961 -1.98
0.43216336 0.16991039 -1.969
0.43585709 0.16991039 -1.969
0.43955079 0.16991039 -1.969
0.44324449 0.16991039 -1.969
0.47720069 0.17284434 -2.003
0.48095816 0.17284434 -2.003
0.49865004 0.16991039 -1.969
0.50234377 0.16991039 -1.969
0.50321043 0.16896117 -1.9579999
0.5068835 0.16896117 -1.9579999
0.51342487 0.16991039 -1.969
0.51711857 0.16991039 -1.969
0.51790267 0.16896117 -1.9579999
0.52157575 0.16896117 -1.9579999
0.52819967 0.16991039 -1.969
0.53189337 0.16991039 -1.969
0.53558707 0.16991039 -1.969
0.53626806 0.16896117 -1.9579999
0.53994113 0.16896117 -1.9579999
0.54056019 0.16801195 -1.947
0.54421264 0.16801195 -1.947
0.56695259 0.1661135 -1.925
0.57056379 0.1661135 -1.925
0.57417494 0.1661135 -1.925
0.57778609 0.1661135 -1.925
0.59136409 0.16896117 -1.9579999
0.59503716 0.16896117 -1.9579999
0.59871018 0.16896117 -1.9579999
0.60238326 0.16896117 -1.9579999
0.60605633 0.16896117 -1.9579999
0.63901079 0.16991039 -1.969
0.64629501 0.17085961 -1.98
0.65000939 0.17085961 -1.98
0.65372372 0.17085961 -1.98
0.65743804 0.17085961 -1.98
0.65747935 0.16991039 -1.969
0.66117305 0.16991039 -1.969
0.66486675 0.16991039 -1.969
-0.63278276 0.12434595 -1.473
-0.62745321 0.12383945 -1.467
-0.6247012 0.12383945 -1.467
-0.62194926 0.12383945 -1.467
-0.61919725 0.12383945 -1.467
-0.61644524 0.12383945 -1.467
-0.61620331 0.12434595 -1.473
-0.61635524 0.12493687 -1.48
-0.61855382 0.12594986 -1.492
-0.6157549 0.12594986 -1.492
-0.61583179 0.12654078 -1.499
-0.61301976 0.12654078 -1.499
-0.6102078 0.12654078 -1.499
-0.61023217 0.1271317 -1.506
-0.59409732 0.12434595 -1.473
-0.58892536 0.12383945 -1.467
-0.58617342 0.12383945 -1.467
-0.5810352 0.12333295 -1.461
-0.57829446 0.12333295 -1.461
-0.57319009 0.12282645 -1.455
-0.57046062 0.12282645 -1.455
-0.56538999 0.12231994 -1.449
-0.56267172 0.12231994 -1.449
-0.55763489 0.12181344 -1.443
-0.55262053 0.12130695 -1.437
-0.54992485 0.12130695 -1.437
-0.54722911 0.12130695 -1.437
-0.54453343 0.12130695 -1.437
-0.54183769 0.12130695 -1.437
-0.53689086 0.12080044 -1.431
-0.53420639 0.12080044 -1.431
-0.53375059 0.12130695 -1.437
-0.53327221 0.12181344 -1.443
-0.53277135 0.12231994 -1.449
-0.5366376 0.12383945 -1.467
-0.5338856 0.12383945 -1.467
-0.53113365 0.12383945 -1.467
-0.52622056 0.12333295 -1.461
-0.46794295 0.11024834 -1.306
-0.46549299 0.11024834 -1.306
-0.46304303 0.11024834 -1.306
-0.46059307 0.11024834 -1.306
-0.45814312 0.11024834 -1.306
-0.45569316 0.11024834 -1.306
-0.4532432 0.11024834 -1.306
-0.45251909 0.11067042 -1.311
-0.45005974 0.11067042 -1.311
-0.44930747 0.11109251 -1.316
-0.44683877 0.11109251 -1.316
-0.44605836 0.11151459 -1.321
-0.44861713 0.11278085 -1.336
-0.44978398 0.11370943 -1.347
-0.4472571 0.11370943 -1.347
-0.44473022 0.11370943 -1.347
-0.44220334 0.11370943 -1.347
-0.43967646 0.11370943 -1.347
-0.43714958 0.11370943 -1.347
-0.43623602 0.11413152 -1.352
-0.43209586 0.11370943 -1.347
-0.42956898 0.11370943 -1.347
-0.4270421 0.11370943 -1.347
-0.42609099 0.11413152 -1.352
-0.42355475 0.11413152 -1.352
-0.42101848 0.11413152 -1.352
-0.41848221 0.11413152 -1.352
-0.41594598 0.11413152 -1.352
-0.41340971 0.11413152 -1.352
-0.41269687 0.11463802 -1.358
-0.41014937 0.11463802 -1.358
-0.40910259 0.11506011 -1.363
-0.40803707 0.11548219 -1.368
-0.40547079 0.11548219 -1.368
-0.40143192 0.11506011 -1.363
-0.39887503 0.11506011 -1.363
-0.39777198 0.11548219 -1.368
-0.39520571 0.11548219 -1.368
-0.39263943 0.11548219 -1.368
-0.39007318 0.11548219 -1.368
-0.3875069 0.11548219 -1.368
-0.36134329 0.11370943 -1.347
-0.35881644 0.11370943 -1.347
-0.35628957 0.11370943 -1.347
-0.35376269 0.11370943 -1.347
-0.34706372 0.11235876 -1.331
-0.34456685 0.11235876 -1.331
-0.34207001 0.11235876 -1.331
-0.34084877 0.11278085 -1.336
-0.33707628 0.11235876 -1.331
-0.33457941 0.11235876 -1.331
-0.33208257 0.11235876 -1.331
-0.3295857 0.11235876 -1.331
-0.32586011 0.11193667 -1.326
-0.33117649 0.11463802 -1.358
-0.32862899 0.11463802 -1.358
-0.32608148 0.11463802 -1.358
-0.32353398 0.11463802 -1.358
-0.32216829 0.11506011 -1.363
-0.3196114 0.11506011 -1.363
-0.31821758 0.11548219 -1.368
-0.3156513 0.11548219 -1.368
-0.31308505 0.11548219 -1.368
-0.31188068 0.11598868 -1.374
-0.30930316 0.11598868 -1.374
-0.30672562 0.11598868 -1.374
-0.30414811 0.11598868 -1.374
-0.30025369 0.11548219 -1.368
-0.29768741 0.11548219 -1.368
-0.29512113 0.11548219 -1.368
-0.29255489 0.11548219 -1.368
-0.28998861 0.11548219 -1.368
-0.28742233 0.11548219 -1.368
-0.28485605 0.11548219 -1.368
-0.2822898 0.11548219 -1.368
-0.28095037 0.11598868 -1.374
-0.27715725 0.11548219 -1.368
-0.27459097 0.11548219 -1.368
-0.2732178 0.11598868 -1.374
-0.27162513 0.11641076 -1.3789999
-0.2690382 0.11641076 -1.3789999
-0.2664513 0.11641076 -1.3789999
-0.2638644 0.11641076 -1.3789999
-0.26241431 0.11691727 -1.385
-0.25981614 0.11691727 -1.385
-0.25814658 0.11733935 -1.39
-0.24456111 0.11463802 -1.358
-0.2420136 0.11463802 -1.358
-0.23946609 0.11463802 -1.358
-0.23587181 0.11413152 -1.352
-0.23333554 0.11413152 -1.352
-0.23079929 0.11413152 -1.352
-0.24658336 0.13532014 -1.603
-0.24479184 0.13599546 -1.6109999
-0.24176972 0.13599546 -1.6109999
-0.2387476 0.13599546 -1.6109999
-0.23572546 0.13599546 -1.6109999
-0.22735883 0.13287205 -1.574
-0.22440612 0.13287205 -1.574
-0.22145341 0.13287205 -1.574
-0.2185007 0.13287205 -1.574
-0.21554798 0.13287205 -1.574
-0.21259527 0.13287205 -1.574
-0.20964256 0.13287205 -1.574
-0.20668985 0.13287205 -1.574
-0.2065848 0.13472921 -1.596
-0.20448376 0.13532014 -1.603
-0.20147665 0.13532014 -1.603
-0.19846953 0.13532014 -1.603
-0.19546242 0.13532014 -1.603
-0.19245531 0.13532014 -1.603
-0.18944819 0.13532014 -1.603
-0.17741974 0.13532014 -1.603
-0.17441262 0.13532014 -1.603
-0.17140551 0.13532014 -1.603
-0.16997418 0.13658638 -1.618
-0.16776434 0.13726172 -1.626
-0.16471407 0.13726172 -1.626
-0.1616638 0.13726172 -1.626
-0.15861355 0.13726172 -1.626
-0.15632866 0.13793705 -1.6339999
-0.15326339 0.13793705 -1.6339999
-0.15019812 0.13793705 -1.6339999
-0.14713286 0.13793705 -1.6339999
-0.14406759 0.13793705 -1.6339999
-0.14100231 0.13793705 -1.6339999
-0.13793705 0.13793705 -1.6339999
-0.16830084 0.17212586 -2.039
-0.16253987 0.17009987 -2.0150001
-0.15875988 0.17009987 -2.0150001
-0.15497987 0.17009987 -2.0150001
-0.15119988 0.17009987 -2.0150001
-0.14741988 0.17009987 -2.0150001
-0.14363989 0.17009987 -2.0150001
-0.13985988 0.17009987 -2.0150001
-0.13607989 0.17009987 -2.0150001
-0.1322999 0.17009987 -2.0150001
-0.12851989 0.17009987 -2.0150001
-0.12548275 0.17111285 -2.027
-0.12168025 0.17111285 -2.027
-0.11787774 0.17111285 -2.027
-0.11407524 0.17111285 -2.027
-0.10961992 0.17009987 -2.0150001
-0.10583992 0.17009987 -2.0150001
-0.10205992 0.17009987 -2.0150001
-0.098279923 0.17009987 -2.0150001
-0.094499923 0.17009987 -2.0150001
-0.091260187 0.17111285 -2.027
-0.087457679 0.17111285 -2.027
-0.083655171 0.17111285 -2.027
-0.080798142 0.17313887 -2.0510001
-0.076050155 0.17111285 -2.027
-0.071819946 0.17009987 -2.0150001
-0.068039946 0.17009987 -2.0150001
-0.064259946 0.17009987 -2.0150001
-0.06011977 0.16908686 -2.003
-0.056362286 0.16908686 -2.003
-0.052604798 0.16908686 -2.003
-0.048847314 0.16908686 -2.003
-0.04508983 0.16908686 -2.003
-0.041332342 0.16908686 -2.003
-0.037574857 0.16908686 -2.003
-0.033817369 0.16908686 -2.003
-0.030239975 0.17009987 -2.0150001
-0.026459979 0.17009987 -2.0150001
-0.022815047 0.17111285 -2.027
-0.019012539 0.17111285 -2.027
-0.015119988 0.17009987 -2.0150001
-0.011339991 0.17009987 -2.0150001
-0.0075599938 0.17009987 -2.0150001
-0.0037799969 0.17009987 -2.0150001
0 0.17009987 -2.0150001
0.0037574857 0.16908686 -2.003
0.0075599938 0.17009987 -2.0150001
0.011272457 0.16908686 -2.003
0.014947401 0.16815826 -1.992
0.018684251 0.16815826 -1.992
0.022421103 0.16815826 -1.992
0.026000375 0.16714527 -1.98
0.029714715 0.16714527 -1.98
0.033429053 0.16714527 -1.98
0.037143394 0.16714527 -1.98
0.040857732 0.16714527 -1.98
0.067263305 0.16815826 -1.992
0.071392231 0.16908686 -2.003
0.075149715 0.16908686 -2.003
0.078907199 0.16908686 -2.003
0.082664683 0.16908686 -2.003
0.086422168 0.16908686 -2.003
0.090179659 0.16908686 -2.003
0.093937144 0.16908686 -2.003
0.097694628 0.16908686 -2.003
0.10089496 0.16815826 -1.992
0.10463181 0.16815826 -1.992
0.10896709 0.16908686 -2.003
0.11272457 0.16908686 -2.003
0.11648206 0.16908686 -2.003
0.12023954 0.16908686 -2.003
0.12331606 0.16815826 -1.992
0.12705292 0.16815826 -1.992
0.131512 0.16908686 -2.003
0.13526948 0.16908686 -2.003
0.15029943 0.16908686 -2.003
0.15405691 0.16908686 -2.003
0.1578144 0.16908686 -2.003
0.16157189 0.16908686 -2.003
0.16532937 0.16908686 -2.003
0.16908686 0.16908686 -2.003
0.17284434 0.16908686 -2.003
0.17660183 0.16908686 -2.003
0.18035932 0.16908686 -2.003
0.1809915 0.16621669 -1.969
0.18571697 0.16714527 -1.98
0.18943131 0.16714527 -1.98
0.23296411 0.16908686 -2.003
0.23542157 0.16815826 -1.992
0.23915842 0.16815826 -1.992
0.24423657 0.16908686 -2.003
0.24663213 0.16815826 -1.992
0.25036898 0.16815826 -1.992
0.25257507 0.16714527 -1.98
0.25628942 0.16714527 -1.98
0.26000375 0.16714527 -1.98
0.2637181 0.16714527 -1.98
0.26446095 0.16528809 -1.9579999
0.26813403 0.16528809 -1.9579999
0.27180707 0.16528809 -1.9579999
0.27548015 0.16528809 -1.9579999
0.27915323 0.16528809 -1.9579999
0.2828263 0.16528809 -1.9579999
0.28649935 0.16528809 -1.9579999
0.29017243 0.16528809 -1.9579999
0.29714715 0.16714527 -1.98
0.30086148 0.16714527 -1.98
0.30457583 0.16714527 -1.98
0.30829015 0.16714527 -1.98
0.31200451 0.16714527 -1.98
0.34005338 0.16815826 -1.992
0.34568867 0.16908686 -2.003
0.34944618 0.16908686 -2.003
0.35320365 0.16908686 -2.003
0.35696113 0.16908686 -2.003
0.36071864 0.16908686 -2.003
0.3624745 0.16815826 -1.992
0.36621132 0.16815826 -1.992
0.36771959 0.16714527 -1.98
0.37368503 0.16815826 -1.992
0.37514827 0.16714527 -1.98
0.37886262 0.16714527 -1.98
0.3804515 0.16621669 -1.969
0.38414523 0.16621669 -1.969
0.39000562 0.16714527 -1.98
0.39371997 0.16714527 -1.98
0.39522633 0.16621669 -1.969
0.39892003 0.16621669 -1.969
0.404863 0.16714527 -1.98
0.40630743 0.16621669 -1.969
0.41479039 0.16815826 -1.992
0.416006 0.16714527 -1.98
0.41738856 0.16621669 -1.969
0.42343467 0.16714527 -1.98
0.42714903 0.16714527 -1.98
0.42846966 0.16621669 -1.969
0.43216336 0.16621669 -1.969
0.43342212 0.16528809 -1.9579999
0.43709517 0.16528809 -1.9579999
0.44076824 0.16528809 -1.9579999
0.47457999 0.16815826 -1.992
0.47831684 0.16815826 -1.992
0.49865004 0.16621669 -1.969
0.50234377 0.16621669 -1.969
0.50321043 0.16528809 -1.9579999
0.50973117 0.16621669 -1.969
0.51342487 0.16621669 -1.969
0.51134074 0.16435951 -1.947
0.51790267 0.16528809 -1.9579999
0.52450597 0.16621669 -1.969
0.52524883 0.16528809 -1.9579999
0.53189337 0.16621669 -1.969
0.53558707 0.16621669 -1.969
0.53626806 0.16528809 -1.9579999
0.53994113 0.16528809 -1.9579999
0.54361415 0.16528809 -1.9579999
0.54728723 0.16528809 -1.9579999
0.5509603 0.16528809 -1.9579999
0.55463338 0.16528809 -1.9579999
0.55830646 0.16528809 -1.9579999
0.56695259 0.16250233 -1.925
0.57056379 0.16250233 -1.925
0.5711922 0.16165817 -1.915
0.58769101 0.16528809 -1.9579999
0.59136409 0.16528809 -1.9579999
0.59503716 0.16528809 -1.9579999
0.59871018 0.16528809 -1.9579999
0.60238326 0.16528809 -1.9579999
0.60605633 0.16528809 -1.9579999
0.65000939 0.16714527 -1.98
0.65372372 0.16714527 -1.98
0.65743804 0.16714527 -1.98
0.66115242 0.16714527 -1.98
0.66486675 0.16714527 -1.98
-0.63278276 0.12158271 -1.473
-0.62745321 0.12108746 -1.467
-0.6247012 0.12108746 -1.467
-0.62194926 0.12108746 -1.467
-0.61919725 0.12108746 -1.467
-0.61644524 0.12108746 -1.467
-0.61620331 0.12158271 -1.473
-0.61635524 0.12216049 -1.48
-0.61606628 0.12265573 -1.4859999
-0.61327869 0.12265573 -1.4859999
-0.61295605 0.12315098 -1.492
-0.61015713 0.12315098 -1.492
-0.60735822 0.12315098 -1.492
-0.60739577 0.12372877 -1.499
-0.59409732 0.12158271 -1.473
-0.58892536 0.12108746 -1.467
-0.58617342 0.12108746 -1.467
-0.5810352 0.12059221 -1.461
-0.57829446 0.12059221 -1.461
-0.57319009 0.12009697 -1.455
-0.57046062 0.12009697 -1.455
-0.56773114 0.12009697 -1.455
-0.56267172 0.11960173 -1.449
-0.55763489 0.11910648 -1.443
-0.55262053 0.11861124 -1.437
-0.54992485 0.11861124 -1.437
-0.54494423 0.11811599 -1.431
-0.54225975 0.11811599 -1.431
-0.53957534 0.11811599 -1.431
-0.53463972 0.11762074 -1.425
-0.53196651 0.11762074 -1.425
-0.52706474 0.1171255 -1.419
-0.52662015 0.11762074 -1.425
-0.52394694 0.11762074 -1.425
-0.52566344 0.11861124 -1.437
-0.5338856 0.12108746 -1.467
-0.53113365 0.12108746 -1.467
-0.52838165 0.12108746 -1.467
-0.46794295 0.10779838 -1.306
-0.46549299 0.10779838 -1.306
-0.46304303 0.10779838 -1.306
-0.46059307 0.10779838 -1.306
-0.45814312 0.10779838 -1.306
-0.45569316 0.10779838 -1.306
-0.4532432 0.10779838 -1.306
-0.45251909 0.10821109 -1.311
-0.45005974 0.10821109 -1.311
-0.44930747 0.10862379 -1.316
-0.44683877 0.10862379 -1.316
-0.44774669 0.10944919 -1.326
-0.44861713 0.11027461 -1.336
-0.4461109 0.11027461 -1.336
-0.4472571 0.11118256 -1.347
-0.44473022 0.11118256 -1.347
-0.44220334 0.11118256 -1.347
-0.43967646 0.11118256 -1.347
-0.43714958 0.11118256 -1.347
-0.4346227 0.11118256 -1.347
-0.4285672 0.11027461 -1.336
-0.42797443 0.11076985 -1.342
-0.42545694 0.11076985 -1.342
-0.42451522 0.11118256 -1.347
-0.42198834 0.11118256 -1.347
-0.41946146 0.11118256 -1.347
-0.41848221 0.11159526 -1.352
-0.4144077 0.11118256 -1.347
-0.41188082 0.11118256 -1.347
-0.41087344 0.11159526 -1.352
-0.40833721 0.11159526 -1.352
-0.40580094 0.11159526 -1.352
-0.40505433 0.11209051 -1.358
-0.40250683 0.11209051 -1.358
-0.39995933 0.11209051 -1.358
-0.39887503 0.11250322 -1.363
-0.39631814 0.11250322 -1.363
-0.39376125 0.11250322 -1.363
-0.39120436 0.11250322 -1.363
-0.38864747 0.11250322 -1.363
-0.38467425 0.11209051 -1.358
-0.38212675 0.11209051 -1.358
-0.35954803 0.1098619 -1.331
-0.35705116 0.1098619 -1.331
-0.35455433 0.1098619 -1.331
-0.35496703 0.11076985 -1.342
-0.35244954 0.11076985 -1.342
-0.34706372 0.1098619 -1.331
-0.34456685 0.1098619 -1.331
-0.34207001 0.1098619 -1.331
-0.34084877 0.11027461 -1.336
-0.33581004 0.10944919 -1.326
-0.33332255 0.10944919 -1.326
-0.33083507 0.10944919 -1.326
-0.32834759 0.10944919 -1.326
-0.32586011 0.10944919 -1.326
-0.31971458 0.10821109 -1.311
-0.31725523 0.10821109 -1.311
-0.32728207 0.11250322 -1.363
-0.32472518 0.11250322 -1.363
-0.32216829 0.11250322 -1.363
-0.3196114 0.11250322 -1.363
-0.31821758 0.11291592 -1.368
-0.3156513 0.11291592 -1.368
-0.31308505 0.11291592 -1.368
-0.31051877 0.11291592 -1.368
-0.30795249 0.11291592 -1.368
-0.30672562 0.11341116 -1.374
-0.30281997 0.11291592 -1.368
-0.30025369 0.11291592 -1.368
-0.29768741 0.11291592 -1.368
-0.29641551 0.11341116 -1.374
-0.29383799 0.11341116 -1.374
-0.28998861 0.11291592 -1.368
-0.28742233 0.11291592 -1.368
-0.28610542 0.11341116 -1.374
-0.28352788 0.11341116 -1.374
-0.27972353 0.11291592 -1.368
-0.27715725 0.11291592 -1.368
-0.27459097 0.11291592 -1.368
-0.27421203 0.11382386 -1.3789999
-0.27162513 0.11382386 -1.3789999
-0.2690382 0.11382386 -1.3789999
-0.2664513 0.11382386 -1.3789999
-0.26501247 0.11431911 -1.385
-0.26241431 0.11431911 -1.385
-0.25981614 0.11431911 -1.385
-0.2420136 0.11209051 -1.358
-0.23946609 0.11209051 -1.358
-0.23691857 0.11209051 -1.358
-0.23437107 0.11209051 -1.358
-0.24658336 0.13231303 -1.603
-0.24479184 0.13297334 -1.6109999
-0.24176972 0.13297334 -1.6109999
-0.2387476 0.13297334 -1.6109999
-0.21202125 0.11960173 -1.449
-0.20930302 0.11960173 -1.449
-0.22440612 0.12991934 -1.574
-0.22145341 0.12991934 -1.574
-0.2185007 0.12991934 -1.574
-0.21554798 0.12991934 -1.574
-0.21164981 0.12934156 -1.567
-0.20964256 0.12991934 -1.574
-0.20668985 0.12991934 -1.574
-0.20373714 0.12991934 -1.574
-0.20167737 0.13049711 -1.581
-0.19871151 0.13049711 -1.581
-0.19574568 0.13049711 -1.581
-0.19546242 0.13231303 -1.603
-0.19245531 0.13231303 -1.603
-0.18944819 0.13231303 -1.603
-0.17441262 0.13231303 -1.603
-0.17140551 0.13231303 -1.603
-0.16997418 0.13355114 -1.618
-0.16776434 0.13421147 -1.626
-0.16471407 0.13421147 -1.626
-0.1616638 0.13421147 -1.626
-0.15861355 0.13421147 -1.626
-0.15632866 0.13487178 -1.6339999
-0.15391997 0.13544957 -1.641
-0.15019812 0.13487178 -1.6339999
-0.14713286 0.13487178 -1.6339999
-0.14406759 0.13487178 -1.6339999
-0.14160638 0.13544957 -1.641
-0.13852797 0.13544957 -1.641
-0.13544957 0.13544957 -1.641
-0.16253987 0.16631986 -2.0150001
-0.1578144 0.16532937 -2.003
-0.15405691 0.16532937 -2.003
-0.15029943 0.16532937 -2.003
-0.14654194 0.16532937 -2.003
-0.14278446 0.16532937 -2.003
-0.13985988 0.16631986 -2.0150001
-0.13607989 0.16631986 -2.0150001
-0.1322999 0.16631986 -2.0150001
-0.12851989 0.16631986 -2.0150001
-0.1247399 0.16631986 -2.0150001
-0.1209599 0.16631986 -2.0150001
-0.11717991 0.16631986 -2.0150001
-0.11407524 0.16731034 -2.027
-0.10961992 0.16631986 -2.0150001
-0.10583992 0.16631986 -2.0150001
-0.10205992 0.16631986 -2.0150001
-0.098279923 0.16631986 -2.0150001
-0.094499923 0.16631986 -2.0150001
-0.090719931 0.16631986 -2.0150001
-0.086939931 0.16631986 -2.0150001
-0.083159931 0.16631986 -2.0150001
-0.079852663 0.16731034 -2.027
-0.075599939 0.16631986 -2.0150001
-0.071819946 0.16631986 -2.0150001
-0.068039946 0.16631986 -2.0150001
-0.064259946 0.16631986 -2.0150001
-0.06047995 0.16631986 -2.0150001
-0.056699954 0.16631986 -2.0150001
-0.052919958 0.16631986 -2.0150001
-0.048847314 0.16532937 -2.003
-0.04508983 0.16532937 -2.003
-0.041332342 0.16532937 -2.003
-0.037574857 0.16532937 -2.003
-0.033817369 0.16532937 -2.003
-0.030239975 0.16631986 -2.0150001
-0.026459979 0.16631986 -2.0150001
-0.022679983 0.16631986 -2.0150001
-0.018899985 0.16631986 -2.0150001
-0.015119988 0.16631986 -2.0150001
-0.011339991 0.16631986 -2.0150001
-0.0075599938 0.16631986 -2.0150001
-0.0037799969 0.16631986 -2.0150001
0 0.16631986 -2.0150001
0.0037799969 0.16631986 -2.0150001
0.0075149713 0.16532937 -2.003
0.011272457 0.16532937 -2.003
0.014947401 0.16442142 -1.992
0.018684251 0.16442142 -1.992
0.022286035 0.16343093 -1.98
0.026157953 0.16442142 -1.992
0.029894803 0.16442142 -1.992
0.033631653 0.16442142 -1.992
0.037143394 0.16343093 -1.98
0.040857732 0.16343093 -1.98
0.067263305 0.16442142 -1.992
0.071392231 0.16532937 -2.003
0.075149715 0.16532937 -2.003
0.078907199 0.16532937 -2.003
0.083159931 0.16631986 -2.0150001
0.086939931 0.16631986 -2.0150001
0.090719931 0.16631986 -2.0150001
0.093937144 0.16532937 -2.003
0.097694628 0.16532937 -2.003
0.10145211 0.16532937 -2.003
0.1052096 0.16532937 -2.003
0.10896709 0.16532937 -2.003
0.11272457 0.16532937 -2.003
0.11648206 0.16532937 -2.003
0.12023954 0.16532937 -2.003
0.12399703 0.16532937 -2.003
0.12705292 0.16442142 -1.992
0.131512 0.16532937 -2.003
0.13526948 0.16532937 -2.003
0.13985988 0.16631986 -2.0150001
0.14363989 0.16631986 -2.0150001
0.14654194 0.16532937 -2.003
0.15029943 0.16532937 -2.003
0.15405691 0.16532937 -2.003
0.15875988 0.16631986 -2.0150001
0.16157189 0.16532937 -2.003
0.16532937 0.16532937 -2.003
0.16908686 0.16532937 -2.003
0.17284434 0.16532937 -2.003
0.17660183 0.16532937 -2.003
0.18035932 0.16532937 -2.003
0.1841168 0.16532937 -2.003
0.18571697 0.16343093 -1.98
0.18943131 0.16343093 -1.98
0.21294044 0.16731034 -2.027
0.21545982 0.16631986 -2.0150001
0.21923983 0.16631986 -2.0150001
0.22301982 0.16631986 -2.0150001
0.22920662 0.16532937 -2.003
0.23296411 0.16532937 -2.003
0.23672161 0.16532937 -2.003
0.24047908 0.16532937 -2.003
0.24423657 0.16532937 -2.003
0.24799405 0.16532937 -2.003
0.24886073 0.16343093 -1.98
0.25257507 0.16343093 -1.98
0.25486559 0.16252297 -1.969
0.25855929 0.16252297 -1.969
0.26078787 0.16161503 -1.9579999
0.26446095 0.16161503 -1.9579999
0.26813403 0.16161503 -1.9579999
0.27180707 0.16161503 -1.9579999
0.27548015 0.16161503 -1.9579999
0.27915323 0.16161503 -1.9579999
0.2828263 0.16161503 -1.9579999
0.28649935 0.16161503 -1.9579999
0.29017243 0.16161503 -1.9579999
0.29549631 0.16252297 -1.969
0.30086148 0.16343093 -1.98
0.30288374 0.16252297 -1.969
0.30657744 0.16252297 -1.969
0.31027114 0.16252297 -1.969
0.31396484 0.16252297 -1.969
0.3158839 0.16161503 -1.9579999
0.31955698 0.16161503 -1.9579999
0.32504594 0.16252297 -1.969
0.32873967 0.16252297 -1.969
0.33243337 0.16252297 -1.969
0.34005338 0.16442142 -1.992
0.34568867 0.16532937 -2.003
0.34944618 0.16532937 -2.003
0.35320365 0.16532937 -2.003
0.35696113 0.16532937 -2.003
0.36071864 0.16532937 -2.003
0.3624745 0.16442142 -1.992
0.36823359 0.16532937 -2.003
0.36994818 0.16442142 -1.992
0.37368503 0.16442142 -1.992
0.37514827 0.16343093 -1.98
0.37886262 0.16343093 -1.98
0.38257694 0.16343093 -1.98
0.3862913 0.16343093 -1.98
0.39000562 0.16343093 -1.98
0.39371997 0.16343093 -1.98
0.39522633 0.16252297 -1.969
0.39892003 0.16252297 -1.969
0.40261373 0.16252297 -1.969
0.40630743 0.16252297 -1.969
0.41000116 0.16252297 -1.969
0.41369486 0.16252297 -1.969
0.41738856 0.16252297 -1.969
0.42108226 0.16252297 -1.969
0.42477596 0.16252297 -1.969
0.42607597 0.16161503 -1.9579999
0.42974904 0.16161503 -1.9579999
0.43342212 0.16161503 -1.9579999
0.43709517 0.16161503 -1.9579999
0.44076824 0.16161503 -1.9579999
0.47457999 0.16442142 -1.992
0.47831684 0.16442142 -1.992
0.49586427 0.16161503 -1.9579999
0.49953735 0.16161503 -1.9579999
0.50321043 0.16161503 -1.9579999
0.50973117 0.16252297 -1.969
0.51342487 0.16252297 -1.969
0.51134074 0.16070709 -1.947
0.51790267 0.16161503 -1.9579999
0.52450597 0.16252297 -1.969
0.52524883 0.16161503 -1.9579999
0.5289219 0.16161503 -1.9579999
0.53259498 0.16161503 -1.9579999
0.53626806 0.16161503 -1.9579999
0.54297447 0.16252297 -1.969
0.54666817 0.16252297 -1.969
0.54728723 0.16161503 -1.9579999
0.5509603 0.16161503 -1.9579999
0.55463338 0.16161503 -1.9579999
0.55830646 0.16161503 -1.9579999
0.57056379 0.15889117 -1.925
0.5711922 0.15806577 -1.915
0.59099263 0.16252297 -1.969
0.59468633 0.16252297 -1.969
0.59838003 0.16252297 -1.969
0.59871018 0.16161503 -1.9579999
0.60238326 0.16161503 -1.9579999
0.60946119 0.16252297 -1.969
0.61315489 0.16252297 -1.969
0.61684859 0.16252297 -1.969
0.65372372 0.16343093 -1.98
0.65743804 0.16343093 -1.98
0.66115242 0.16343093 -1.98
0.66486675 0.16343093 -1.98
0.67634743 0.16532937 -2.003
0.68010491 0.16532937 -2.003
0.68386239 0.16532937 -2.003
-0.63020521 0.11833547 -1.467
-0.62745321 0.11833547 -1.467
-0.6247012 0.11833547 -1.467
-0.62194926 0.11833547 -1.467
-0.61919725 0.11833547 -1.467
-0.61896652 0.11881947 -1.473
-0.61913157 0.11938412 -1.48
-0.61635524 0.11938412 -1.48
-0.61855382 0.1203521 -1.492
-0.6157549 0.1203521 -1.492
-0.61295605 0.1203521 -1.492
-0.61015713 0.1203521 -1.492
-0.6049158 0.1198681 -1.4859999
-0.60212815 0.1198681 -1.4859999
-0.59409732 0.11881947 -1.473
-0.58892536 0.11833547 -1.467
-0.58617342 0.11833547 -1.467
-0.5810352 0.11785148 -1.461
-0.57829446 0.11785148 -1.461
-0.57319009 0.1173675 -1.455
-0.57046062 0.1173675 -1.455
-0.56538999 0.1168835 -1.449
-0.56267172 0.1168835 -1.449
-0.55763489 0.11639951 -1.443
-0.55262053 0.11591553 -1.437
-0.54992485 0.11591553 -1.437
-0.54494423 0.11543153 -1.431
-0.54225975 0.11543153 -1.431
-0.53957534 0.11543153 -1.431
-0.53463972 0.11494754 -1.425
-0.53196651 0.11494754 -1.425
-0.52706474 0.11446356 -1.419
-0.52662015 0.11494754 -1.425
-0.52174085 0.11446356 -1.419
-0.52346861 0.11543153 -1.431
-0.52078414 0.11543153 -1.431
-0.47103262 0.10494509 -1.301
-0.46859205 0.10494509 -1.301
-0.46794295 0.10534842 -1.306
-0.46549299 0.10534842 -1.306
-0.46304303 0.10534842 -1.306
-0.46059307 0.10534842 -1.306
-0.45814312 0.10534842 -1.306
-0.45569316 0.10534842 -1.306
-0.4532432 0.10534842 -1.306
-0.45251909 0.10575174 -1.311
-0.45005974 0.10575174 -1.311
-0.44760039 0.10575174 -1.311
-0.44683877 0.10615507 -1.316
-0.44605836 0.10655839 -1.321
-0.44861713 0.10776836 -1.336
-0.4461109 0.10776836 -1.336
-0.4472571 0.10865568 -1.347
-0.44473022 0.10865568 -1.347
-0.44220334 0.10865568 -1.347
-0.43804443 0.10825235 -1.342
-0.43552691 0.10825235 -1.342
-0.43300942 0.10825235 -1.342
-0.4269633 0.10736503 -1.331
-0.42446643 0.10736503 -1.331
-0.42196956 0.10736503 -1.331
-0.42293945 0.10825235 -1.342
-0.42198834 0.10865568 -1.347
-0.41946146 0.10865568 -1.347
-0.41693458 0.10865568 -1.347
-0.4144077 0.10865568 -1.347
-0.41188082 0.10865568 -1.347
-0.40935394 0.10865568 -1.347
-0.40682709 0.10865568 -1.347
-0.40430021 0.10865568 -1.347
-0.40177333 0.10865568 -1.347
-0.39924645 0.10865568 -1.347
-0.39819217 0.10905901 -1.352
-0.39741179 0.109543 -1.358
-0.39486429 0.109543 -1.358
-0.39231679 0.109543 -1.358
-0.38976926 0.109543 -1.358
-0.38722175 0.109543 -1.358
-0.38297465 0.10905901 -1.352
-0.38043839 0.10905901 -1.352
-0.37790212 0.10905901 -1.352
-0.35954803 0.10736503 -1.331
-0.35705116 0.10736503 -1.331
-0.35455433 0.10736503 -1.331
-0.35205746 0.10736503 -1.331
-0.34956059 0.10736503 -1.331
-0.34706372 0.10736503 -1.331
-0.34456685 0.10736503 -1.331
-0.34207001 0.10736503 -1.331
-0.34084877 0.10776836 -1.336
-0.33707628 0.10736503 -1.331
-0.33457941 0.10736503 -1.331
-0.33333007 0.10776836 -1.336
-0.3295857 0.10736503 -1.331
-0.32217389 0.10575174 -1.311
-0.31971458 0.10575174 -1.311
-0.31725523 0.10575174 -1.311
-0.32728207 0.10994632 -1.363
-0.32472518 0.10994632 -1.363
-0.32216829 0.10994632 -1.363
-0.3196114 0.10994632 -1.363
-0.31821758 0.11034965 -1.368
-0.3156513 0.11034965 -1.368
-0.31308505 0.11034965 -1.368
-0.31051877 0.11034965 -1.368
-0.30795249 0.11034965 -1.368
-0.30538622 0.11034965 -1.368
-0.30281997 0.11034965 -1.368
-0.30025369 0.11034965 -1.368
-0.29899305 0.11083363 -1.374
-0.29641551 0.11083363 -1.374
-0.29383799 0.11083363 -1.374
-0.29126048 0.11083363 -1.374
-0.28868294 0.11083363 -1.374
-0.28610542 0.11083363 -1.374
-0.28352788 0.11083363 -1.374
-0.28095037 0.11083363 -1.374
-0.27837282 0.11083363 -1.374
-0.27579531 0.11083363 -1.374
-0.2732178 0.11083363 -1.374
-0.27162513 0.11123695 -1.3789999
-0.2690382 0.11123695 -1.3789999
-0.2664513 0.11123695 -1.3789999
-0.2638644 0.11123695 -1.3789999
-0.2612775 0.11123695 -1.3789999
-0.25981614 0.11172095 -1.385
-0.24094431 0.10905901 -1.352
-0.23840806 0.10905901 -1.352
-0.23691857 0.109543 -1.358
-0.23437107 0.109543 -1.358
-0.24658336 0.12930591 -1.603
-0.24479184 0.12995122 -1.6109999
-0.2156568 0.11591553 -1.437
-0.21473946 0.1168835 -1.449
-0.21202125 0.1168835 -1.449
-0.20843634 0.11639951 -1.443
-0.20572937 0.11639951 -1.443
-0.20302241 0.11639951 -1.443
-0.21752897 0.12640198 -1.567
-0.21458939 0.12640198 -1.567
-0.21164981 0.12640198 -1.567
-0.20871022 0.12640198 -1.567
-0.20668985 0.12696663 -1.574
-0.20373714 0.12696663 -1.574
-0.20167737 0.12753128 -1.581
-0.19871151 0.12753128 -1.581
-0.19574568 0.12753128 -1.581
-0.19460887 0.12874125 -1.596
-0.19245531 0.12930591 -1.603
-0.18944819 0.12930591 -1.603
-0.17140551 0.12930591 -1.603
-0.1683984 0.12930591 -1.603
-0.16621667 0.12995122 -1.6109999
-0.16319455 0.12995122 -1.6109999
-0.16086841 0.13051589 -1.618
-0.15861355 0.1311612 -1.626
-0.15632866 0.13180651 -1.6339999
-0.15326339 0.13180651 -1.6339999
-0.15019812 0.13180651 -1.6339999
-0.14713286 0.13180651 -1.6339999
-0.14406759 0.13180651 -1.6339999
-0.14160638 0.13237117 -1.641
-0.13852797 0.13237117 -1.641
-0.13544957 0.13237117 -1.641
-0.16253987 0.16253987 -2.0150001
-0.15875988 0.16253987 -2.0150001
-0.15497987 0.16253987 -2.0150001
-0.15119988 0.16253987 -2.0150001
-0.14654194 0.16157189 -2.003
-0.14278446 0.16157189 -2.003
-0.13902697 0.16157189 -2.003
-0.13607989 0.16253987 -2.0150001
-0.131512 0.16157189 -2.003
-0.12851989 0.16253987 -2.0150001
-0.1247399 0.16253987 -2.0150001
-0.1209599 0.16253987 -2.0150001
-0.11787774 0.16350783 -2.027
-0.11407524 0.16350783 -2.027
-0.10961992 0.16253987 -2.0150001
-0.10583992 0.16253987 -2.0150001
-0.10205992 0.16253987 -2.0150001
-0.098279923 0.16253987 -2.0150001
-0.094499923 0.16253987 -2.0150001
-0.090719931 0.16253987 -2.0150001
-0.086422168 0.16157189 -2.003
-0.082664683 0.16157189 -2.003
-0.078907199 0.16157189 -2.003
-0.075149715 0.16157189 -2.003
-0.071392231 0.16157189 -2.003
-0.068039946 0.16253987 -2.0150001
-0.064259946 0.16253987 -2.0150001
-0.06047995 0.16253987 -2.0150001
-0.056699954 0.16253987 -2.0150001
-0.052919958 0.16253987 -2.0150001
-0.049139962 0.16253987 -2.0150001
-0.045359965 0.16253987 -2.0150001
-0.041579966 0.16253987 -2.0150001
-0.037799969 0.16253987 -2.0150001
-0.034019973 0.16253987 -2.0150001
-0.030239975 0.16253987 -2.0150001
-0.026459979 0.16253987 -2.0150001
-0.022679983 0.16253987 -2.0150001
-0.018899985 0.16253987 -2.0150001
-0.015119988 0.16253987 -2.0150001
-0.011339991 0.16253987 -2.0150001
-0.0075599938 0.16253987 -2.0150001
-0.0037799969 0.16253987 -2.0150001
0 0.16253987 -2.0150001
0.0037574857 0.16157189 -2.003
0.0075599938 0.16253987 -2.0150001
0.011272457 0.16157189 -2.003
0.015029943 0.16157189 -2.003
0.018684251 0.16068457 -1.992
0.022421103 0.16068457 -1.992
0.026157953 0.16068457 -1.992
0.029894803 0.16068457 -1.992
0.033631653 0.16068457 -1.992
0.075149715 0.16157189 -2.003
0.078907199 0.16157189 -2.003
0.082210712 0.16068457 -1.992
0.086422168 0.16157189 -2.003
0.090179659 0.16157189 -2.003
0.093421258 0.16068457 -1.992
0.097158112 0.16068457 -1.992
0.10145211 0.16157189 -2.003
0.1052096 0.16157189 -2.003
0.10896709 0.16157189 -2.003
0.11272457 0.16157189 -2.003
0.11648206 0.16157189 -2.003
0.12023954 0.16157189 -2.003
0.12331606 0.16068457 -1.992
0.12705292 0.16068457 -1.992
0.13078976 0.16068457 -1.992
0.13526948 0.16157189 -2.003
0.13902697 0.16157189 -2.003
0.14278446 0.16157189 -2.003
0.14654194 0.16157189 -2.003
0.15029943 0.16157189 -2.003
0.15497987 0.16253987 -2.0150001
0.15875988 0.16253987 -2.0150001
0.16350783 0.16350783 -2.027
0.16631986 0.16253987 -2.0150001
0.16908686 0.16157189 -2.003
0.17189512 0.16068457 -1.992
0.17563197 0.16068457 -1.992
0.17936882 0.16068457 -1.992
0.18310566 0.16068457 -1.992
0.18571697 0.15971659 -1.98
0.18943131 0.15971659 -1.98
0.19431622 0.16068457 -1.992
0.19914675 0.16157189 -2.003
0.20411983 0.16253987 -2.0150001
0.20913793 0.16350783 -2.027
0.21167983 0.16253987 -2.0150001
0.21545982 0.16253987 -2.0150001
0.21923983 0.16253987 -2.0150001
0.22301982 0.16253987 -2.0150001
0.22544914 0.16157189 -2.003
0.22920662 0.16157189 -2.003
0.23296411 0.16157189 -2.003
0.23813981 0.16253987 -2.0150001
0.2419198 0.16253987 -2.0150001
0.24423657 0.16157189 -2.003
0.24799405 0.16157189 -2.003
0.25175154 0.16157189 -2.003
0.25410584 0.16068457 -1.992
0.25784269 0.16068457 -1.992
0.25855929 0.15882927 -1.969
0.26078787 0.15794195 -1.9579999
0.26446095 0.15794195 -1.9579999
0.26813403 0.15794195 -1.9579999
0.27548015 0.15794195 -1.9579999
0.27915323 0.15794195 -1.9579999
0.2828263 0.15794195 -1.9579999
0.28649935 0.15794195 -1.9579999
0.29180261 0.15882927 -1.969
0.29549631 0.15882927 -1.969
0.30086148 0.15971659 -1.98
0.30288374 0.15882927 -1.969
0.30657744 0.15882927 -1.969
0.31027114 0.15882927 -1.969
0.31396484 0.15882927 -1.969
0.31765854 0.15882927 -1.969
0.32135224 0.15882927 -1.969
0.32504594 0.15882927 -1.969
0.32873967 0.15882927 -1.969
0.33243337 0.15882927 -1.969
0.33800489 0.15971659 -1.98
0.34568867 0.16157189 -2.003
0.35153973 0.16253987 -2.0150001
0.35531971 0.16253987 -2.0150001
0.35696113 0.16157189 -2.003
0.36071864 0.16157189 -2.003
0.3624745 0.16068457 -1.992
0.36823359 0.16157189 -2.003
0.36994818 0.16068457 -1.992
0.37368503 0.16068457 -1.992
0.37742189 0.16068457 -1.992
0.37886262 0.15971659 -1.98
0.38489559 0.16068457 -1.992
0.38863245 0.16068457 -1.992
0.3923693 0.16068457 -1.992
0.39371997 0.15971659 -1.98
0.39743429 0.15971659 -1.98
0.40114865 0.15971659 -1.98
0.40731668 0.16068457 -1.992
0.40630743 0.15882927 -1.969
0.41000116 0.15882927 -1.969
0.41369486 0.15882927 -1.969
0.41738856 0.15882927 -1.969
0.42108226 0.15882927 -1.969
0.42477596 0.15882927 -1.969
0.42607597 0.15794195 -1.9579999
0.42733473 0.15705465 -1.947
0.43098718 0.15705465 -1.947
0.43709517 0.15794195 -1.9579999
0.44076824 0.15794195 -1.9579999
0.49865004 0.15882927 -1.969
0.50234377 0.15882927 -1.969
0.52524883 0.15794195 -1.9579999
0.5289219 0.15794195 -1.9579999
0.53259498 0.15794195 -1.9579999
0.53626806 0.15794195 -1.9579999
0.54297447 0.15882927 -1.969
0.54666817 0.15882927 -1.969
0.54728723 0.15794195 -1.9579999
0.5509603 0.15794195 -1.9579999
0.55463338 0.15794195 -1.9579999
0.58729893 0.15882927 -1.969
0.59099263 0.15882927 -1.969
0.59800863 0.15971659 -1.98
0.59838003 0.15882927 -1.969
0.60207373 0.15882927 -1.969
0.60576749 0.15882927 -1.969
0.60946119 0.15882927 -1.969
0.61315489 0.15882927 -1.969
0.61684859 0.15882927 -1.969
0.65372372 0.15971659 -1.98
0.66142249 0.16068457 -1.992
0.66515934 0.16068457 -1.992
0.6688962 0.16068457 -1.992
0.67634743 0.16157189 -2.003
0.68010491 0.16157189 -2.003
0.68386239 0.16157189 -2.003
-0.63020521 0.11558349 -1.467
-0.62745321 0.11558349 -1.467
-0.62214619 0.11511075 -1.461
-0.62194926 0.11558349 -1.467
-0.61919725 0.11558349 -1.467
-0.61644524 0.11558349 -1.467
-0.61620331 0.11605623 -1.473
-0.61635524 0.11660774 -1.48
-0.61855382 0.11755321 -1.492
-0.6157549 0.11755321 -1.492
-0.61295605 0.11755321 -1.492
-0.61015713 0.11755321 -1.492
-0.6049158 0.11708047 -1.4859999
-0.60212815 0.11708047 -1.4859999
-0.59409732 0.11605623 -1.473
-0.58892536 0.11558349 -1.467
-0.58377594 0.11511075 -1.461
-0.5810352 0.11511075 -1.461
-0.57591957 0.11463802 -1.455
-0.57319009 0.11463802 -1.455
-0.5681082 0.11416528 -1.449
-0.56538999 0.11416528 -1.449
-0.56034184 0.11369254 -1.443
-0.55763489 0.11369254 -1.443
-0.55262053 0.11321982 -1.437
-0.54992485 0.11321982 -1.437
-0.54722911 0.11321982 -1.437
-0.54453343 0.11321982 -1.437
-0.54183769 0.11321982 -1.437
-0.53463972 0.11227434 -1.425
-0.53196651 0.11227434 -1.425
-0.52706474 0.11180162 -1.419
-0.52662015 0.11227434 -1.425
-0.52394694 0.11227434 -1.425
-0.52127373 0.11227434 -1.425
-0.51860052 0.11227434 -1.425
-0.47103262 0.10250451 -1.301
-0.46859205 0.10250451 -1.301
-0.46435994 0.10211056 -1.296
-0.46371087 0.10250451 -1.301
-0.4612703 0.10250451 -1.301
-0.4588297 0.10250451 -1.301
-0.45638913 0.10250451 -1.301
-0.45220393 0.10211056 -1.296
-0.45150796 0.10250451 -1.301
-0.44906738 0.10250451 -1.301
-0.44834325 0.10289846 -1.306
-0.44589329 0.10289846 -1.306
-0.44514105 0.1032924 -1.311
-0.44437003 0.10368634 -1.316
-0.44525921 0.10447423 -1.326
-0.44444132 0.10486817 -1.331
-0.44194445 0.10486817 -1.331
-0.43944761 0.10486817 -1.331
-0.44056192 0.10573486 -1.342
-0.43282181 0.10447423 -1.326
-0.42871165 0.10408029 -1.321
-0.43107346 0.10526212 -1.336
-0.42375547 0.10408029 -1.321
-0.42127734 0.10408029 -1.321
-0.41879925 0.10408029 -1.321
-0.41632116 0.10408029 -1.321
-0.41854224 0.10526212 -1.336
-0.41790444 0.10573486 -1.342
-0.41538695 0.10573486 -1.342
-0.41286945 0.10573486 -1.342
-0.41188082 0.1061288 -1.347
-0.40935394 0.1061288 -1.347
-0.40531695 0.10573486 -1.342
-0.40279946 0.10573486 -1.342
-0.40028197 0.10573486 -1.342
-0.39776447 0.10573486 -1.342
-0.39671957 0.1061288 -1.347
-0.3941927 0.1061288 -1.347
-0.39166582 0.1061288 -1.347
-0.38913894 0.1061288 -1.347
-0.38661206 0.1061288 -1.347
-0.38551089 0.10652275 -1.352
-0.38297465 0.10652275 -1.352
-0.37903145 0.1061288 -1.347
-0.37650457 0.1061288 -1.347
-0.3725895 0.10573486 -1.342
-0.36841741 0.10526212 -1.336
-0.36591119 0.10526212 -1.336
-0.3620449 0.10486817 -1.331
-0.35954803 0.10486817 -1.331
-0.35705116 0.10486817 -1.331
-0.35455433 0.10486817 -1.331
-0.35205746 0.10486817 -1.331
-0.34956059 0.10486817 -1.331
-0.34993204 0.10573486 -1.342
-0.34456685 0.10486817 -1.331
-0.34489703 0.10573486 -1.342
-0.34084877 0.10526212 -1.336
-0.33834255 0.10526212 -1.336
-0.33457941 0.10486817 -1.331
-0.33333007 0.10526212 -1.336
-0.3295857 0.10486817 -1.331
-0.32217389 0.1032924 -1.311
-0.31971458 0.1032924 -1.311
-0.31725523 0.1032924 -1.311
-0.31479588 0.1032924 -1.311
-0.31961325 0.1082561 -1.374
-0.31703573 0.1082561 -1.374
-0.31445819 0.1082561 -1.374
-0.31051877 0.10778338 -1.368
-0.30795249 0.10778338 -1.368
-0.30672562 0.1082561 -1.374
-0.30414811 0.1082561 -1.374
-0.30157056 0.1082561 -1.374
-0.29899305 0.1082561 -1.374
-0.29641551 0.1082561 -1.374
-0.29490727 0.10865005 -1.3789999
-0.29232037 0.10865005 -1.3789999
-0.28973347 0.10865005 -1.3789999
-0.28714657 0.10865005 -1.3789999
-0.28455964 0.10865005 -1.3789999
-0.28095037 0.1082561 -1.374
-0.27837282 0.1082561 -1.374
-0.27679893 0.10865005 -1.3789999
-0.27421203 0.10865005 -1.3789999
-0.27162513 0.10865005 -1.3789999
-0.26806274 0.1082561 -1.374
-0.2654852 0.1082561 -1.374
-0.2638644 0.10865005 -1.3789999
-0.2612775 0.10865005 -1.3789999
-0.2586906 0.10865005 -1.3789999
-0.24456111 0.10699549 -1.358
-0.2420136 0.10699549 -1.358
-0.24034777 0.10738943 -1.363
-0.23779088 0.10738943 -1.363
-0.24658336 0.1262988 -1.603
-0.24357624 0.1262988 -1.603
-0.21655723 0.11369254 -1.443
-0.21385026 0.11369254 -1.443
-0.2111433 0.11369254 -1.443
-0.20843634 0.11369254 -1.443
-0.20572937 0.11369254 -1.443
-0.19964574 0.11180162 -1.419
-0.1969838 0.11180162 -1.419
-0.19432186 0.11180162 -1.419
-0.21164981 0.12346239 -1.567
-0.20871022 0.12346239 -1.567
-0.20577064 0.12346239 -1.567
-0.20373714 0.12401391 -1.574
-0.20078443 0.12401391 -1.574
-0.19871151 0.12456543 -1.581
-0.19574568 0.12456543 -1.581
-0.19375531 0.12519574 -1.589
-0.19077447 0.12519574 -1.589
-0.18944819 0.1262988 -1.603
-0.18644108 0.1262988 -1.603
-0.18343396 0.1262988 -1.603
-0.18042685 0.1262988 -1.603
-0.17830516 0.1269291 -1.6109999
-0.17441262 0.1262988 -1.603
-0.17140551 0.1262988 -1.603
-0.16923879 0.1269291 -1.6109999
-0.16539128 0.1262988 -1.603
-0.16319455 0.1269291 -1.6109999
-0.16086841 0.12748063 -1.618
-0.15861355 0.12811095 -1.626
-0.15632866 0.12874125 -1.6339999
-0.15326339 0.12874125 -1.6339999
-0.15019812 0.12874125 -1.6339999
-0.14713286 0.12874125 -1.6339999
-0.14406759 0.12874125 -1.6339999
-0.14160638 0.12929277 -1.641
-0.13852797 0.12929277 -1.641
-0.13544957 0.12929277 -1.641
-0.16253987 0.15875988 -2.0150001
-0.15875988 0.15875988 -2.0150001
-0.15405691 0.1578144 -2.003
-0.15029943 0.1578144 -2.003
-0.14654194 0.1578144 -2.003
-0.14278446 0.1578144 -2.003
-0.13902697 0.1578144 -2.003
-0.13526948 0.1578144 -2.003
-0.131512 0.1578144 -2.003
-0.12851989 0.15875988 -2.0150001
-0.12399703 0.1578144 -2.003
-0.1209599 0.15875988 -2.0150001
-0.11787774 0.15970533 -2.027
-0.11407524 0.15970533 -2.027
-0.10961992 0.15875988 -2.0150001
-0.10583992 0.15875988 -2.0150001
-0.10205992 0.15875988 -2.0150001
-0.098279923 0.15875988 -2.0150001
-0.094499923 0.15875988 -2.0150001
-0.090719931 0.15875988 -2.0150001
-0.086422168 0.1578144 -2.003
-0.082664683 0.1578144 -2.003
-0.079379939 0.15875988 -2.0150001
-0.075149715 0.1578144 -2.003
-0.071392231 0.1578144 -2.003
-0.068039946 0.15875988 -2.0150001
-0.064259946 0.15875988 -2.0150001
-0.06047995 0.15875988 -2.0150001
-0.056699954 0.15875988 -2.0150001
-0.052919958 0.15875988 -2.0150001
-0.049139962 0.15875988 -2.0150001
-0.045359965 0.15875988 -2.0150001
-0.041579966 0.15875988 -2.0150001
-0.037799969 0.15875988 -2.0150001
-0.034019973 0.15875988 -2.0150001
-0.030239975 0.15875988 -2.0150001
-0.026459979 0.15875988 -2.0150001
-0.022679983 0.15875988 -2.0150001
-0.018899985 0.15875988 -2.0150001
-0.015119988 0.15875988 -2.0150001
-0.011339991 0.15875988 -2.0150001
-0.0075599938 0.15875988 -2.0150001
-0.0037574857 0.1578144 -2.003
0 0.1578144 -2.003
0.0037574857 0.1578144 -2.003
0.0075149713 0.1578144 -2.003
0.011272457 0.1578144 -2.003
0.015029943 0.1578144 -2.003
0.018684251 0.15694772 -1.992
0.022421103 0.15694772 -1.992
0.026157953 0.15694772 -1.992
0.029894803 0.15694772 -1.992
0.033631653 0.15694772 -1.992
0.082210712 0.15694772 -1.992
0.086422168 0.1578144 -2.003
0.090179659 0.1578144 -2.003
0.093421258 0.15694772 -1.992
0.097158112 0.15694772 -1.992
0.10145211 0.1578144 -2.003
0.1052096 0.1578144 -2.003
0.10836866 0.15694772 -1.992
0.11272457 0.1578144 -2.003
0.11648206 0.1578144 -2.003
0.12023954 0.1578144 -2.003
0.12399703 0.1578144 -2.003
0.12775451 0.1578144 -2.003
0.131512 0.1578144 -2.003
0.13526948 0.1578144 -2.003
0.13985988 0.15875988 -2.0150001
0.14363989 0.15875988 -2.0150001
0.14741988 0.15875988 -2.0150001
0.15210031 0.15970533 -2.027
0.15590282 0.15970533 -2.027
0.15875988 0.15875988 -2.0150001
0.16253987 0.15875988 -2.0150001
0.16631986 0.15875988 -2.0150001
0.17009987 0.15875988 -2.0150001
0.17284434 0.1578144 -2.003
0.17563197 0.15694772 -1.992
0.17936882 0.15694772 -1.992
0.18310566 0.15694772 -1.992
0.18571697 0.15600225 -1.98
0.18943131 0.15600225 -1.98
0.19431622 0.15694772 -1.992
0.19805308 0.15694772 -1.992
0.20290422 0.1578144 -2.003
0.20789984 0.15875988 -2.0150001
0.21167983 0.15875988 -2.0150001
0.21545982 0.15875988 -2.0150001
0.21793418 0.1578144 -2.003
0.22169165 0.1578144 -2.003
0.22544914 0.1578144 -2.003
0.22920662 0.1578144 -2.003
0.23435982 0.15875988 -2.0150001
0.239558 0.15970533 -2.027
0.24624194 0.16159628 -2.0510001
0.24569981 0.15875988 -2.0150001
0.2494798 0.15875988 -2.0150001
0.25325981 0.15875988 -2.0150001
0.25410584 0.15694772 -1.992
0.25784269 0.15694772 -1.992
0.26157951 0.15694772 -1.992
0.26078787 0.15426889 -1.9579999
0.26446095 0.15426889 -1.9579999
0.27915323 0.15426889 -1.9579999
0.28441522 0.15513557 -1.969
0.28810892 0.15513557 -1.969
0.29180261 0.15513557 -1.969
0.29714715 0.15600225 -1.98
0.30086148 0.15600225 -1.98
0.30457583 0.15600225 -1.98
0.30657744 0.15513557 -1.969
0.31027114 0.15513557 -1.969
0.31396484 0.15513557 -1.969
0.31765854 0.15513557 -1.969
0.32135224 0.15513557 -1.969
0.32504594 0.15513557 -1.969
0.32873967 0.15513557 -1.969
0.33631653 0.15694772 -1.992
0.34005338 0.15694772 -1.992
0.34983072 0.15970533 -2.027
0.35363322 0.15970533 -2.027
0.35531971 0.15875988 -2.0150001
0.35696113 0.1578144 -2.003
