# .PCD v0.7 - Point Cloud Data file format
VERSION 0.7
FIELDS x y z
SIZE 4 4 4
TYPE F F F
COUNT 1 1 1
WIDTH 1538
HEIGHT 1
VIEWPOINT 0 0 0 1 0 0 0
POINTS 1538
DATA ascii
-0.15410192 -0.12588608 -1.1569999
-0.15193148 -0.12588608 -1.1569999
-0.14924328 -0.12545086 -1.153
-0.14759058 -0.12588608 -1.1569999
-0.14542013 -0.12588608 -1.1569999
-0.14324968 -0.12588608 -1.1569999
-0.14107923 -0.12588608 -1.1569999
-0.13890877 -0.12588608 -1.1569999
-0.13721107 -0.1263213 -1.161
-0.13503312 -0.1263213 -1.161
-0.13285516 -0.1263213 -1.161
-0.13112743 -0.12675652 -1.165
-0.12894197 -0.12675652 -1.165
-0.12675652 -0.12675652 -1.165
-0.12499878 -0.12719174 -1.169
-0.12280581 -0.12719174 -1.169
-0.12061285 -0.12719174 -1.169
-0.11841989 -0.12719174 -1.169
-0.11622693 -0.12719174 -1.169
-0.11403397 -0.12719174 -1.169
-0.11184101 -0.12719174 -1.169
-0.10964805 -0.12719174 -1.169
-0.10782277 -0.12762694 -1.173
-0.1056223 -0.12762694 -1.173
-0.10377452 -0.12806217 -1.177
-0.10156655 -0.12806217 -1.177
-0.099696241 -0.12849738 -1.181
-0.097480774 -0.12849738 -1.181
-0.095265299 -0.12849738 -1.181
-0.093049824 -0.12849738 -1.181
-0.090526707 -0.12806217 -1.177
-0.088318735 -0.12806217 -1.177
-0.086110771 -0.12806217 -1.177
-0.083902799 -0.12806217 -1.177
-0.081972465 -0.12849738 -1.181
-0.079756998 -0.12849738 -1.181
-0.077804148 -0.1289326 -1.1849999
-0.075581171 -0.1289326 -1.1849999
-0.073605821 -0.12936781 -1.189
-0.071375348 -0.12936781 -1.189
-0.069377474 -0.12980302 -1.193
-0.067139491 -0.12980302 -1.193
-0.064901508 -0.12980302 -1.193
-0.062663525 -0.12980302 -1.193
-0.060425546 -0.12980302 -1.193
-0.058187563 -0.12980302 -1.193
-0.05594958 -0.12980302 -1.193
-0.053891689 -0.13023825 -1.197
-0.051646199 -0.13023825 -1.197
-0.049400713 -0.13023825 -1.197
-0.047155228 -0.13023825 -1.197
-0.044909738 -0.13023825 -1.197
-0.042664252 -0.13023825 -1.197
-0.040418766 -0.13023825 -1.197
-0.038173277 -0.13023825 -1.197
-0.035927791 -0.13023825 -1.197
-0.033822998 -0.13078226 -1.202
-0.031568132 -0.13078226 -1.202
-0.029313266 -0.13078226 -1.202
-0.0270584 -0.13078226 -1.202
-0.024803532 -0.13078226 -1.202
-0.022548666 -0.13078226 -1.202
-0.0202938 -0.13078226 -1.202
-0.018038932 -0.13078226 -1.202
-0.015784066 -0.13078226 -1.202
-0.0135292 -0.13078226 -1.202
-0.011311851 -0.13121748 -1.206
-0.0090794964 -0.1316527 -1.21
-0.006809622 -0.1316527 -1.21
-0.0045397482 -0.1316527 -1.21
-0.0022773778 -0.1320879 -1.214
0 -0.1320879 -1.214
0.0022773778 -0.1320879 -1.214
0.0045547555 -0.1320879 -1.214
0.006832133 -0.1320879 -1.214
0.0090794964 -0.1316527 -1.21
0.011349371 -0.1316527 -1.21
0.013619244 -0.1316527 -1.21
0.015889119 -0.1316527 -1.21
0.018219022 -0.1320879 -1.214
0.0204964 -0.1320879 -1.214
0.022773776 -0.1320879 -1.214
0.025051154 -0.1320879 -1.214
0.027328532 -0.1320879 -1.214
0.029508363 -0.1316527 -1.21
0.031778239 -0.1316527 -1.21
0.03404811 -0.1316527 -1.21
0.036588117 -0.13263193 -1.219
0.038874876 -0.13263193 -1.219
0.04116163 -0.13263193 -1.219
0.043448389 -0.13263193 -1.219
0.045735147 -0.13263193 -1.219
0.048179485 -0.13306715 -1.223
0.050473746 -0.13306715 -1.223
0.052768007 -0.13306715 -1.223
0.054882176 -0.13263193 -1.219
0.057168934 -0.13263193 -1.219
0.059455689 -0.13263193 -1.219
0.061742447 -0.13263193 -1.219
0.064029202 -0.13263193 -1.219
0.066315964 -0.13263193 -1.219
0.068827838 -0.13306715 -1.223
0.07088948 -0.13263193 -1.219
0.073176235 -0.13263193 -1.219
0.075710617 -0.13306715 -1.223
0.078260005 -0.13350236 -1.227
0.080890052 -0.13404638 -1.232
0.0832012 -0.13404638 -1.232
0.08551234 -0.13404638 -1.232
0.087823488 -0.13404638 -1.232
0.090134636 -0.13404638 -1.232
0.092445776 -0.13404638 -1.232
0.094372354 -0.13350236 -1.227
0.096674122 -0.13350236 -1.227
0.098975889 -0.13350236 -1.227
0.10127765 -0.13350236 -1.227
0.10357942 -0.13350236 -1.227
0.10631264 -0.13404638 -1.232
0.10862379 -0.13404638 -1.232
0.11093494 -0.13404638 -1.232
0.11324608 -0.13404638 -1.232
0.11555722 -0.13404638 -1.232
0.11786836 -0.13404638 -1.232
0.12017951 -0.13404638 -1.232
0.12199353 -0.13350236 -1.227
0.1242953 -0.13350236 -1.227
0.12659706 -0.13350236 -1.227
0.12847863 -0.13306715 -1.223
0.1312006 -0.13350236 -1.227
0.13306715 -0.13306715 -1.223
0.1353614 -0.13306715 -1.223
0.13810588 -0.13350236 -1.227
0.14040765 -0.13350236 -1.227
0.14270942 -0.13350236 -1.227
0.14501119 -0.13350236 -1.227
0.14731294 -0.13350236 -1.227
0.15022439 -0.13404638 -1.232
0.15253553 -0.13404638 -1.232
0.15534942 -0.13448159 -1.2359999
0.15766807 -0.13448159 -1.2359999
0.15998672 -0.13448159 -1.2359999
0.16230537 -0.13448159 -1.2359999
0.16462401 -0.13448159 -1.2359999
0.16748294 -0.13491681 -1.24
0.16980909 -0.13491681 -1.24
0.17157996 -0.13448159 -1.2359999
0.17389861 -0.13448159 -1.2359999
0.17564698 -0.13404638 -1.232
0.17853589 -0.13448159 -1.2359999
0.18085454 -0.13448159 -1.2359999
0.18317319 -0.13448159 -1.2359999
0.18489155 -0.13404638 -1.232
0.1878105 -0.13448159 -1.2359999
0.19012915 -0.13448159 -1.2359999
0.19244778 -0.13448159 -1.2359999
0.19476643 -0.13448159 -1.2359999
0.19708508 -0.13448159 -1.2359999
0.19940373 -0.13448159 -1.2359999
0.20172238 -0.13448159 -1.2359999
0.20404103 -0.13448159 -1.2359999
0.20635967 -0.13448159 -1.2359999
0.20867832 -0.13448159 -1.2359999
0.21099697 -0.13448159 -1.2359999
0.21262528 -0.13404638 -1.232
0.21406412 -0.13350236 -1.227
0.21636589 -0.13350236 -1.227
0.21795481 -0.13306715 -1.223
0.22024907 -0.13306715 -1.223
0.22254333 -0.13306715 -1.223
0.22557294 -0.13350236 -1.227
0.22787471 -0.13350236 -1.227
0.23017648 -0.13350236 -1.227
0.23247825 -0.13350236 -1.227
0.23478001 -0.13350236 -1.227
0.23708177 -0.13350236 -1.227
0.23938353 -0.13350236 -1.227
0.24089742 -0.13306715 -1.223
0.24319169 -0.13306715 -1.223
0.24548595 -0.13306715 -1.223
0.2477802 -0.13306715 -1.223
0.25007448 -0.13306715 -1.223
0.25236872 -0.13306715 -1.223
0.25383008 -0.13263193 -1.219
0.61807358 -0.18289931 -1.681
0.62122697 -0.18289931 -1.681
0.62140894 -0.18202889 -1.673
0.62454736 -0.18202889 -1.673
0.62468433 -0.18115845 -1.665
0.62780774 -0.18115845 -1.665
0.63093114 -0.18115845 -1.665
0.63133264 -0.17604467 -1.618
0.63436788 -0.17604467 -1.618
0.64055473 -0.17691511 -1.626
0.64043838 -0.17604467 -1.618
0.6466552 -0.17691511 -1.626
0.64650887 -0.17604467 -1.618
0.64954418 -0.17604467 -1.618
0.65257943 -0.17604467 -1.618
0.6467002 -0.17365098 -1.596
0.64358807 -0.17201893 -1.581
0.64369124 -0.1712573 -1.574
0.64664394 -0.1712573 -1.574
0.64959669 -0.1712573 -1.574
0.65254939 -0.1712573 -1.574
0.65550208 -0.1712573 -1.574
0.65845484 -0.1712573 -1.574
0.6584661 -0.17049567 -1.567
0.66140568 -0.17049567 -1.567
0.66434526 -0.17049567 -1.567
0.66728479 -0.17049567 -1.567
0.67022437 -0.17049567 -1.567
0.67617106 -0.1712573 -1.574
0.67610353 -0.17049567 -1.567
0.67297637 -0.16897242 -1.553
0.67588967 -0.16897242 -1.553
0.66962409 -0.16668753 -1.5319999
0.67864352 -0.16821079 -1.546
0.68154377 -0.16821079 -1.546
0.68134493 -0.16744918 -1.539
0.68423194 -0.16744918 -1.539
0.67506427 -0.16451146 -1.512
0.67790067 -0.16451146 -1.512
0.68388867 -0.1652731 -1.5190001
0.68673819 -0.1652731 -1.5190001
0.68640989 -0.16451146 -1.512
0.6892463 -0.16451146 -1.512
0.6920827 -0.16451146 -1.512
0.69491911 -0.16451146 -1.512
0.69775552 -0.16451146 -1.512
0.70059192 -0.16451146 -1.512
0.6973803 -0.16309701 -1.499
0.70019233 -0.16309701 -1.499
0.69972146 -0.16233538 -1.492
0.69969517 -0.16168256 -1.4859999
0.70248282 -0.16168256 -1.4859999
0.70527047 -0.16168256 -1.4859999
0.70805812 -0.16168256 -1.4859999
0.70797557 -0.16102974 -1.48
0.70739031 -0.16026811 -1.473
0.71352834 -0.16102974 -1.48
0.71291679 -0.16026811 -1.473
0.71568006 -0.16026811 -1.473
0.71193188 -0.15700398 -1.443
0.71166742 -0.15635118 -1.437
0.71436316 -0.15635118 -1.437
0.71406484 -0.15569834 -1.431
0.71674931 -0.15569834 -1.431
0.71943372 -0.15569834 -1.431
0.71909046 -0.15504552 -1.425
0.72176361 -0.15504552 -1.425
0.72443682 -0.15504552 -1.425
-1.0693977 -0.20287608 -1.8329999
-1.0659591 -0.20287608 -1.8329999
-1.0573035 -0.20187996 -1.824
-1.0538819 -0.20187996 -1.824
-1.0556433 -0.20287608 -1.8329999
-1.0522047 -0.20287608 -1.8329999
-1.0544878 -0.20398289 -1.8430001
-1.0453275 -0.20287608 -1.8329999
-1.0418891 -0.20287608 -1.8329999
-1.0441158 -0.20398289 -1.8430001
-1.0406585 -0.20398289 -1.8430001
-1.0372012 -0.20398289 -1.8430001
-1.0337437 -0.20398289 -1.8430001
-1.0302864 -0.20398289 -1.8430001
-1.0268291 -0.20398289 -1.8430001
-1.0233718 -0.20398289 -1.8430001
-1.0199145 -0.20398289 -1.8430001
-1.0219723 -0.20508969 -1.853
-1.0239927 -0.20619649 -1.863
-1.0150201 -0.20508969 -1.853
-1.0170029 -0.20619649 -1.863
-1.0135081 -0.20619649 -1.863
-1.0100133 -0.20619649 -1.863
-1.011921 -0.20730329 -1.873
-1.0084075 -0.20730329 -1.873
-1.0048939 -0.20730329 -1.873
-1.0013802 -0.20730329 -1.873
-0.99786663 -0.20730329 -1.873
-0.99966192 -0.20841008 -1.883
-0.99612951 -0.20841008 -1.883
-0.99259716 -0.20841008 -1.883
-0.98381215 -0.20730329 -1.873
-0.98029858 -0.20730329 -1.873
-0.97678494 -0.20730329 -1.873
-0.97327131 -0.20730329 -1.873
-0.96458018 -0.20619649 -1.863
-0.9662441 -0.20730329 -1.873
-0.96273047 -0.20730329 -1.873
-0.95921689 -0.20730329 -1.873
-0.95570326 -0.20730329 -1.873
-0.95218962 -0.20730329 -1.873
-0.94867605 -0.20730329 -1.873
-0.94516242 -0.20730329 -1.873
-0.94164878 -0.20730329 -1.873
-0.93813521 -0.20730329 -1.873
-0.93961155 -0.20841008 -1.883
-0.93607914 -0.20841008 -1.883
-0.92759436 -0.20730329 -1.873
-0.92408073 -0.20730329 -1.873
-0.9205671 -0.20730329 -1.873
-0.91705352 -0.20730329 -1.873
-0.91353989 -0.20730329 -1.873
-0.91488492 -0.20841008 -1.883
-0.91135252 -0.20841008 -1.883
-0.91312343 -0.20962755 -1.8940001
-0.90957046 -0.20962755 -1.8940001
-0.91080105 -0.21073435 -1.904
-0.90722924 -0.21073435 -1.904
-0.9036575 -0.21073435 -1.904
-0.90528578 -0.21195182 -1.915
-0.89651394 -0.21073435 -1.904
-0.89294219 -0.21073435 -1.904
-0.89450854 -0.21195182 -1.915
-0.88579863 -0.21073435 -1.904
-0.88222688 -0.21073435 -1.904
-0.87865514 -0.21073435 -1.904
-0.87508333 -0.21073435 -1.904
-0.87151158 -0.21073435 -1.904
-0.86793983 -0.21073435 -1.904
-0.86436802 -0.21073435 -1.904
-0.86079627 -0.21073435 -1.904
-0.85722452 -0.21073435 -1.904
-0.85858452 -0.21195182 -1.915
-0.85008097 -0.21073435 -1.904
-0.85139972 -0.21195182 -1.915
-0.84780729 -0.21195182 -1.915
-0.84421492 -0.21195182 -1.915
-0.84062248 -0.21195182 -1.915
-0.84140098 -0.21305862 -1.925
-0.83778983 -0.21305862 -1.925
-0.83417869 -0.21305862 -1.925
-0.83056754 -0.21305862 -1.925
-0.82695633 -0.21305862 -1.925
-0.82334518 -0.21305862 -1.925
-0.81973404 -0.21305862 -1.925
-0.82078642 -0.21427611 -1.936
-0.81715465 -0.21427611 -1.936
-0.81352282 -0.21427611 -1.936
-0.80989105 -0.21427611 -1.936
-0.81084025 -0.21549359 -1.947
-0.81174821 -0.21671106 -1.9579999
-0.80807513 -0.21671106 -1.9579999
-0.80440205 -0.21671106 -1.9579999
-0.80522746 -0.21792854 -1.969
-0.80153376 -0.21792854 -1.969
-0.79784006 -0.21792854 -1.969
-0.79414636 -0.21792854 -1.969
-0.78603673 -0.21671106 -1.9579999
-0.78236365 -0.21671106 -1.9579999
-0.77869058 -0.21671106 -1.9579999
-0.7706635 -0.21549359 -1.947
-0.76701105 -0.21549359 -1.947
-0.75904584 -0.21427611 -1.936
-0.7597062 -0.21549359 -1.947
-0.75605375 -0.21549359 -1.947
-0.75240135 -0.21549359 -1.947
-0.7445187 -0.21427611 -1.936
-0.74509645 -0.21549359 -1.947
-0.7372551 -0.21427611 -1.936
-0.73362327 -0.21427611 -1.936
-0.7299915 -0.21427611 -1.936
-0.72635967 -0.21427611 -1.936
-0.7309407 -0.21671106 -1.9579999
-0.72726762 -0.21671106 -1.9579999
-0.72359455 -0.21671106 -1.9579999
-0.723966 -0.21792854 -1.969
-0.7202723 -0.21792854 -1.969
-0.71257532 -0.21671106 -1.9579999
-0.70890224 -0.21671106 -1.9579999
-0.70522922 -0.21671106 -1.9579999
-0.70549744 -0.21792854 -1.969
-0.70180374 -0.21792854 -1.969
-0.69811004 -0.21792854 -1.969
-0.69441634 -0.21792854 -1.969
-0.69072264 -0.21792854 -1.969
-0.68702894 -0.21792854 -1.969
-0.6091066 -0.22047417 -1.992
-0.60536975 -0.22047417 -1.992
-0.60163289 -0.22047417 -1.992
-0.59789604 -0.22047417 -1.992
-0.59415919 -0.22047417 -1.992
-0.59042239 -0.22047417 -1.992
-0.58668554 -0.22047417 -1.992
-0.58616775 -0.22169165 -2.003
-0.58241028 -0.22169165 -2.003
-0.5786528 -0.22169165 -2.003
-0.57489532 -0.22169165 -2.003
-0.57113785 -0.22169165 -2.003
-0.56738031 -0.22169165 -2.003
-0.56362283 -0.22169165 -2.003
-0.55679071 -0.22047417 -1.992
-0.54972219 -0.21914601 -1.98
-0.54297447 -0.21792854 -1.969
-0.53928077 -0.21792854 -1.969
-0.53857923 -0.21914601 -1.98
-0.53486484 -0.21914601 -1.98
-0.53115052 -0.21914601 -1.98
-0.52541959 -0.22301982 -2.0150001
-0.52163959 -0.22301982 -2.0150001
-0.51785958 -0.22301982 -2.0150001
-0.4464711 -0.19368966 -1.75
-0.44090897 -0.19269355 -1.7410001
-0.43764299 -0.19269355 -1.7410001
-0.43213147 -0.19169742 -1.732
-0.42888236 -0.19169742 -1.732
-0.42563325 -0.19169742 -1.732
-0.42238414 -0.19169742 -1.732
-0.19358461 -0.1255109 -1.1339999
-0.1914573 -0.1255109 -1.1339999
-0.1881613 -0.12473614 -1.127
-0.18604712 -0.12473614 -1.127
-0.18393295 -0.12473614 -1.127
-0.18246411 -0.12517886 -1.131
-0.18034244 -0.12517886 -1.131
-0.17781179 -0.12639633 -1.142
-0.17566948 -0.12639633 -1.142
-0.17352717 -0.12639633 -1.142
-0.17138486 -0.12639633 -1.142
-0.16983536 -0.12683906 -1.146
-0.16768554 -0.12683906 -1.146
-0.16553572 -0.12683906 -1.146
-0.16395618 -0.12728177 -1.15
-0.16179886 -0.12728177 -1.15
-0.16005801 -0.12761381 -1.153
-0.15789506 -0.12761381 -1.153
-0.15627238 -0.12805653 -1.1569999
-0.15356918 -0.12761381 -1.153
-0.15193148 -0.12805653 -1.1569999
-0.14976102 -0.12805653 -1.1569999
-0.14759058 -0.12805653 -1.1569999
-0.14542013 -0.12805653 -1.1569999
-0.14324968 -0.12805653 -1.1569999
-0.14107923 -0.12805653 -1.1569999
-0.13890877 -0.12805653 -1.1569999
-0.13721107 -0.12849925 -1.161
-0.13503312 -0.12849925 -1.161
-0.13285516 -0.12849925 -1.161
-0.13112743 -0.12894197 -1.165
-0.12894197 -0.12894197 -1.165
-0.12675652 -0.12894197 -1.165
-0.12499878 -0.1293847 -1.169
-0.12280581 -0.1293847 -1.169
-0.12061285 -0.1293847 -1.169
-0.11841989 -0.1293847 -1.169
-0.11622693 -0.1293847 -1.169
-0.11403397 -0.1293847 -1.169
-0.11184101 -0.1293847 -1.169
-0.10964805 -0.1293847 -1.169
-0.10745509 -0.1293847 -1.169
-0.1056223 -0.12982741 -1.173
-0.10377452 -0.13027014 -1.177
-0.10156655 -0.13027014 -1.177
-0.099696241 -0.13071285 -1.181
-0.097480774 -0.13071285 -1.181
-0.095265299 -0.13071285 -1.181
-0.093049824 -0.13071285 -1.181
-0.090834357 -0.13071285 -1.181
-0.088618882 -0.13071285 -1.181
-0.086403407 -0.13071285 -1.181
-0.08418794 -0.13071285 -1.181
-0.081972465 -0.13071285 -1.181
-0.079756998 -0.13071285 -1.181
-0.077804148 -0.13115557 -1.1849999
-0.075581171 -0.13115557 -1.1849999
-0.073605821 -0.13159829 -1.189
-0.071375348 -0.13159829 -1.189
-0.069144867 -0.13159829 -1.189
-0.066914387 -0.13159829 -1.189
-0.064683907 -0.13159829 -1.189
-0.062663525 -0.13204101 -1.193
-0.060425546 -0.13204101 -1.193
-0.058187563 -0.13204101 -1.193
-0.05594958 -0.13204101 -1.193
-0.053891689 -0.13248374 -1.197
-0.051646199 -0.13248374 -1.197
-0.049400713 -0.13248374 -1.197
-0.047155228 -0.13248374 -1.197
-0.044909738 -0.13248374 -1.197
-0.042664252 -0.13248374 -1.197
-0.040418766 -0.13248374 -1.197
-0.038173277 -0.13248374 -1.197
-0.035927791 -0.13248374 -1.197
-0.033682305 -0.13248374 -1.197
-0.031568132 -0.13303714 -1.202
-0.029313266 -0.13303714 -1.202
-0.0270584 -0.13303714 -1.202
-0.024803532 -0.13303714 -1.202
-0.022548666 -0.13303714 -1.202
-0.0202938 -0.13303714 -1.202
-0.018038932 -0.13303714 -1.202
-0.015784066 -0.13303714 -1.202
-0.0135292 -0.13303714 -1.202
-0.011274333 -0.13303714 -1.202
-0.0090794964 -0.13392258 -1.21
-0.006809622 -0.13392258 -1.21
-0.0045397482 -0.13392258 -1.21
-0.0022773778 -0.13436529 -1.214
0 -0.13436529 -1.214
0.0022773778 -0.13436529 -1.214
0.0045547555 -0.13436529 -1.214
0.006809622 -0.13392258 -1.21
0.0090794964 -0.13392258 -1.21
0.011349371 -0.13392258 -1.21
0.013619244 -0.13392258 -1.21
0.015889119 -0.13392258 -1.21
0.018158993 -0.13392258 -1.21
0.0204964 -0.13436529 -1.214
0.022698741 -0.13392258 -1.21
0.024968615 -0.13392258 -1.21
0.027328532 -0.13436529 -1.214
0.02960591 -0.13436529 -1.214
0.031778239 -0.13392258 -1.21
0.03404811 -0.13392258 -1.21
0.036438044 -0.13436529 -1.214
0.038715422 -0.13436529 -1.214
0.04116163 -0.13491869 -1.219
0.043448389 -0.13491869 -1.219
0.045735147 -0.13491869 -1.219
0.048179485 -0.1353614 -1.223
0.050473746 -0.1353614 -1.223
0.052595418 -0.13491869 -1.219
0.054882176 -0.13491869 -1.219
0.057356529 -0.1353614 -1.223
0.05965079 -0.1353614 -1.223
0.061742447 -0.13491869 -1.219
0.064029202 -0.13491869 -1.219
0.066315964 -0.13491869 -1.219
0.068602718 -0.13491869 -1.219
0.070598707 -0.13436529 -1.214
0.073176235 -0.13491869 -1.219
0.07546299 -0.13491869 -1.219
0.078004882 -0.1353614 -1.223
0.080561765 -0.13580412 -1.227
0.082593404 -0.1353614 -1.223
0.084887661 -0.1353614 -1.223
0.087823488 -0.13635752 -1.232
0.090134636 -0.13635752 -1.232
0.092445776 -0.13635752 -1.232
0.094372354 -0.13580412 -1.227
0.096674122 -0.13580412 -1.227
0.098975889 -0.13580412 -1.227
0.10127765 -0.13580412 -1.227
0.10357942 -0.13580412 -1.227
0.10588118 -0.13580412 -1.227
0.10862379 -0.13635752 -1.232
0.11048471 -0.13580412 -1.227
0.11278647 -0.13580412 -1.227
0.11555722 -0.13635752 -1.232
0.11786836 -0.13635752 -1.232
0.12017951 -0.13635752 -1.232
0.12199353 -0.13580412 -1.227
0.1238901 -0.1353614 -1.223
0.12618436 -0.1353614 -1.223
0.12847863 -0.1353614 -1.223
0.1312006 -0.13580412 -1.227
0.13350236 -0.13580412 -1.227
0.13580412 -0.13580412 -1.227
0.13810588 -0.13580412 -1.227
0.14040765 -0.13580412 -1.227
0.14329095 -0.13635752 -1.232
0.14560209 -0.13635752 -1.232
0.14791325 -0.13635752 -1.232
0.15022439 -0.13635752 -1.232
0.15253553 -0.13635752 -1.232
0.15484668 -0.13635752 -1.232
0.15715782 -0.13635752 -1.232
0.15998672 -0.13680023 -1.2359999
0.1617801 -0.13635752 -1.232
0.16462401 -0.13680023 -1.2359999
0.16694266 -0.13680023 -1.2359999
0.16926131 -0.13680023 -1.2359999
0.17102468 -0.13635752 -1.232
0.17333584 -0.13635752 -1.232
0.17564698 -0.13635752 -1.232
0.17795812 -0.13635752 -1.232
0.18085454 -0.13680023 -1.2359999
0.18317319 -0.13680023 -1.2359999
0.18489155 -0.13635752 -1.232
0.1878105 -0.13680023 -1.2359999
0.19012915 -0.13680023 -1.2359999
0.19182499 -0.13635752 -1.232
0.19476643 -0.13680023 -1.2359999
0.19708508 -0.13680023 -1.2359999
0.19940373 -0.13680023 -1.2359999
0.20172238 -0.13680023 -1.2359999
0.20404103 -0.13680023 -1.2359999
0.20635967 -0.13680023 -1.2359999
0.20867832 -0.13680023 -1.2359999
0.21099697 -0.13680023 -1.2359999
0.21262528 -0.13635752 -1.232
0.21406412 -0.13580412 -1.227
0.21566056 -0.1353614 -1.223
0.21795481 -0.1353614 -1.223
0.22024907 -0.1353614 -1.223
0.22327119 -0.13580412 -1.227
0.22557294 -0.13580412 -1.227
0.22787471 -0.13580412 -1.227
0.23017648 -0.13580412 -1.227
0.23247825 -0.13580412 -1.227
0.23478001 -0.13580412 -1.227
0.23708177 -0.13580412 -1.227
0.23860316 -0.1353614 -1.223
0.24010952 -0.13491869 -1.219
0.24239628 -0.13491869 -1.219
0.24468303 -0.13491869 -1.219
0.24696979 -0.13491869 -1.219
0.24925655 -0.13491869 -1.219
0.25154331 -0.13491869 -1.219
0.25383008 -0.13491869 -1.219
0.62122697 -0.18605275 -1.681
0.62140894 -0.18516731 -1.673
0.62454736 -0.18516731 -1.673
0.62780774 -0.18428187 -1.665
0.63093114 -0.18428187 -1.665
0.63133264 -0.17907993 -1.618
0.63436788 -0.17907993 -1.618
0.64055473 -0.17996538 -1.626
0.64043838 -0.17907993 -1.618
0.64347363 -0.17907993 -1.618
0.64371186 -0.17830516 -1.6109999
0.646734 -0.17830516 -1.6109999
0.64975607 -0.17830516 -1.6109999
0.6467002 -0.17664497 -1.596
0.6496942 -0.17664497 -1.596
0.64369124 -0.17421001 -1.574
0.64951974 -0.17498477 -1.581
0.64959669 -0.17421001 -1.574
0.65254939 -0.17421001 -1.574
0.65550208 -0.17421001 -1.574
0.65845484 -0.17421001 -1.574
0.6584661 -0.17343526 -1.567
0.66140568 -0.17343526 -1.567
0.66434526 -0.17343526 -1.567
0.66728479 -0.17343526 -1.567
0.67022437 -0.17343526 -1.567
0.67316395 -0.17343526 -1.567
0.67610353 -0.17343526 -1.567
0.66994298 -0.17111099 -1.546
0.67588967 -0.17188574 -1.553
0.66962409 -0.16956146 -1.5319999
0.67864352 -0.17111099 -1.546
0.68154377 -0.17111099 -1.546
0.68134493 -0.17033623 -1.539
0.68423194 -0.17033623 -1.539
0.67818958 -0.16812263 -1.5190001
0.68103915 -0.16812263 -1.5190001
0.68388867 -0.16812263 -1.5190001
0.68673819 -0.16812263 -1.5190001
0.68640989 -0.16734786 -1.512
0.6892463 -0.16734786 -1.512
0.6920827 -0.16734786 -1.512
0.69491911 -0.16734786 -1.512
0.69775552 -0.16734786 -1.512
0.69781184 -0.16668379 -1.506
0.6973803 -0.16590902 -1.499
0.70019233 -0.16590902 -1.499
0.69972146 -0.16513427 -1.492
0.70252037 -0.16513427 -1.492
0.70531923 -0.16513427 -1.492
0.70527047 -0.16447018 -1.4859999
0.70805812 -0.16447018 -1.4859999
0.71084571 -0.16447018 -1.4859999
0.71075195 -0.16380611 -1.48
0.71352834 -0.16380611 -1.48
0.71291679 -0.16303135 -1.473
0.71568006 -0.16303135 -1.473
0.70897174 -0.15904689 -1.437
0.71166742 -0.15904689 -1.437
0.71138036 -0.1583828 -1.431
0.71406484 -0.1583828 -1.431
0.71674931 -0.1583828 -1.431
0.71641725 -0.15771872 -1.425
0.71909046 -0.15771872 -1.425
0.72176361 -0.15771872 -1.425
0.72443682 -0.15771872 -1.425
0.72711003 -0.15771872 -1.425
-1.0693977 -0.20631465 -1.8329999
-1.0607252 -0.20530166 -1.824
-1.0573035 -0.20530166 -1.824
-1.048104 -0.20417611 -1.814
-1.0504602 -0.20530166 -1.824
-1.0522047 -0.20631465 -1.8329999
-1.0487661 -0.20631465 -1.8329999
-1.0453275 -0.20631465 -1.8329999
-1.0418891 -0.20631465 -1.8329999
-1.0441158 -0.20744023 -1.8430001
-1.0350119 -0.20631465 -1.8329999
-1.0372012 -0.20744023 -1.8430001
-1.0337437 -0.20744023 -1.8430001
-1.0302864 -0.20744023 -1.8430001
-1.0268291 -0.20744023 -1.8430001
-1.0233718 -0.20744023 -1.8430001
-1.0199145 -0.20744023 -1.8430001
-1.0164571 -0.20744023 -1.8430001
-1.0129998 -0.20744023 -1.8430001
-1.0095425 -0.20744023 -1.8430001
-1.0060852 -0.20744023 -1.8430001
-1.008068 -0.20856579 -1.853
-1.0045918 -0.20856579 -1.853
-1.0065185 -0.20969135 -1.863
-1.0030236 -0.20969135 -1.863
-1.0048939 -0.21081689 -1.873
-1.0013802 -0.21081689 -1.873
-0.99786663 -0.21081689 -1.873
-0.994353 -0.21081689 -1.873
-0.99083942 -0.21081689 -1.873
-0.98732579 -0.21081689 -1.873
-0.98381215 -0.21081689 -1.873
-0.98029858 -0.21081689 -1.873
-0.9715699 -0.20969135 -1.863
-0.96807504 -0.20969135 -1.863
-0.96458018 -0.20969135 -1.863
-0.95592648 -0.20856579 -1.853
-0.95245039 -0.20856579 -1.853
-0.94897431 -0.20856579 -1.853
-0.94549823 -0.20856579 -1.853
-0.94710588 -0.20969135 -1.863
-0.94361103 -0.20969135 -1.863
-0.94011617 -0.20969135 -1.863
-0.94164878 -0.21081689 -1.873
-0.9431439 -0.21194245 -1.883
-0.93961155 -0.21194245 -1.883
-0.93607914 -0.21194245 -1.883
-0.93254679 -0.21194245 -1.883
-0.92901444 -0.21194245 -1.883
-0.9205671 -0.21081689 -1.873
-0.91705352 -0.21081689 -1.873
-0.91353989 -0.21081689 -1.873
-0.91488492 -0.21194245 -1.883
-0.91135252 -0.21194245 -1.883
-0.90782017 -0.21194245 -1.883
-0.90428782 -0.21194245 -1.883
-0.90601742 -0.21318057 -1.8940001
-0.90246439 -0.21318057 -1.8940001
-0.9036575 -0.21430613 -1.904
-0.90008575 -0.21430613 -1.904
-0.89651394 -0.21430613 -1.904
-0.88825238 -0.21318057 -1.8940001
-0.88937044 -0.21430613 -1.904
-0.88114637 -0.21318057 -1.8940001
-0.87759334 -0.21318057 -1.8940001
-0.87404031 -0.21318057 -1.8940001
-0.87048733 -0.21318057 -1.8940001
-0.8669343 -0.21318057 -1.8940001
-0.86793983 -0.21430613 -1.904
-0.86436802 -0.21430613 -1.904
-0.86079627 -0.21430613 -1.904
-0.85722452 -0.21430613 -1.904
-0.85365272 -0.21430613 -1.904
-0.85008097 -0.21430613 -1.904
-0.84650922 -0.21430613 -1.904
-0.84293741 -0.21430613 -1.904
-0.83936566 -0.21430613 -1.904
-0.84062248 -0.21554422 -1.915
-0.83703011 -0.21554422 -1.915
-0.83778983 -0.21666978 -1.925
-0.82984531 -0.21554422 -1.915
-0.83056754 -0.21666978 -1.925
-0.82695633 -0.21666978 -1.925
-0.82334518 -0.21666978 -1.925
-0.81973404 -0.21666978 -1.925
-0.81612283 -0.21666978 -1.925
-0.81715465 -0.21790791 -1.936
-0.81352282 -0.21790791 -1.936
-0.80528939 -0.21666978 -1.925
-0.80625921 -0.21790791 -1.936
-0.80718786 -0.21914601 -1.947
-0.8035354 -0.21914601 -1.947
-0.79988295 -0.21914601 -1.947
-0.80072898 -0.22038412 -1.9579999
-0.7970559 -0.22038412 -1.9579999
-0.79338282 -0.22038412 -1.9579999
-0.78970981 -0.22038412 -1.9579999
-0.78603673 -0.22038412 -1.9579999
-0.77796835 -0.21914601 -1.947
-0.77431595 -0.21914601 -1.947
-0.76630944 -0.21790791 -1.936
-0.76267767 -0.21790791 -1.936
-0.75904584 -0.21790791 -1.936
-0.7597062 -0.21914601 -1.947
-0.75605375 -0.21914601 -1.947
-0.74815047 -0.21790791 -1.936
-0.7445187 -0.21790791 -1.936
-0.74088687 -0.21790791 -1.936
-0.73306608 -0.21666978 -1.925
-0.73362327 -0.21790791 -1.936
-0.73413914 -0.21914601 -1.947
-0.73461378 -0.22038412 -1.9579999
-0.7309407 -0.22038412 -1.9579999
-0.7313534 -0.22162224 -1.969
-0.7276597 -0.22162224 -1.969
-0.723966 -0.22162224 -1.969
-0.7202723 -0.22162224 -1.969
-0.71257532 -0.22038412 -1.9579999
-0.70890224 -0.22038412 -1.9579999
-0.70522922 -0.22038412 -1.9579999
-0.70155615 -0.22038412 -1.9579999
-0.69788307 -0.22038412 -1.9579999
-0.69811004 -0.22162224 -1.969
-0.69441634 -0.22162224 -1.969
-0.69072264 -0.22162224 -1.969
-0.68702894 -0.22162224 -1.969
-0.6091066 -0.22421102 -1.992
-0.60536975 -0.22421102 -1.992
-0.60163289 -0.22421102 -1.992
-0.59789604 -0.22421102 -1.992
-0.59415919 -0.22421102 -1.992
-0.59042239 -0.22421102 -1.992
-0.58668554 -0.22421102 -1.992
-0.58294868 -0.22421102 -1.992
-0.57921183 -0.22421102 -1.992
-0.5786528 -0.22544914 -2.003
-0.57173812 -0.22421102 -1.992
-0.57113785 -0.22544914 -2.003
-0.56738031 -0.22544914 -2.003
-0.56362283 -0.22544914 -2.003
-0.55986536 -0.22544914 -2.003
-0.55305386 -0.22421102 -1.992
-0.549317 -0.22421102 -1.992
-0.54558015 -0.22421102 -1.992
-0.53857923 -0.22286037 -1.98
-0.53486484 -0.22286037 -1.98
-0.53115052 -0.22286037 -1.98
-0.47641093 -0.20417611 -1.814
-0.46570686 -0.20102455 -1.786
-0.45769665 -0.19899854 -1.768
-0.45438001 -0.19899854 -1.768
-0.4464711 -0.19697253 -1.75
-0.44090897 -0.19595954 -1.7410001
-0.43764299 -0.19595954 -1.7410001
-0.43213147 -0.19494653 -1.732
-0.42888236 -0.19494653 -1.732
-0.42563325 -0.19494653 -1.732
-0.42238414 -0.19494653 -1.732
-0.19095081 -0.12730055 -1.131
-0.1881613 -0.12685031 -1.127
-0.18604712 -0.12685031 -1.127
-0.18393295 -0.12685031 -1.127
-0.18246411 -0.12730055 -1.131
-0.18034244 -0.12730055 -1.131
-0.17869347 -0.12763819 -1.1339999
-0.17718899 -0.12808843 -1.138
-0.17505419 -0.12808843 -1.138
-0.17352717 -0.12853864 -1.142
-0.17138486 -0.12853864 -1.142
-0.16924255 -0.12853864 -1.142
-0.16768554 -0.12898888 -1.146
-0.16553572 -0.12898888 -1.146
-0.16395618 -0.1294391 -1.15
-0.16179886 -0.1294391 -1.15
-0.16005801 -0.12977676 -1.153
-0.15789506 -0.12977676 -1.153
-0.15573211 -0.12977676 -1.153
-0.15356918 -0.12977676 -1.153
-0.15140623 -0.12977676 -1.153
-0.14924328 -0.12977676 -1.153
-0.14708033 -0.12977676 -1.153
-0.14491738 -0.12977676 -1.153
-0.14275444 -0.12977676 -1.153
-0.14059149 -0.12977676 -1.153
-0.13890877 -0.13022698 -1.1569999
-0.13673833 -0.13022698 -1.1569999
-0.13456789 -0.13022698 -1.1569999
-0.13285516 -0.13067721 -1.161
-0.13067721 -0.13067721 -1.161
-0.12894197 -0.13112743 -1.165
-0.12675652 -0.13112743 -1.165
-0.12457106 -0.13112743 -1.165
-0.12280581 -0.13157766 -1.169
-0.12020014 -0.13112743 -1.165
-0.11801469 -0.13112743 -1.165
-0.11582923 -0.13112743 -1.165
-0.11364377 -0.13112743 -1.165
-0.11145832 -0.13112743 -1.165
-0.10964805 -0.13157766 -1.169
-0.10745509 -0.13157766 -1.169
-0.1056223 -0.13202788 -1.173
-0.10377452 -0.1324781 -1.177
-0.10156655 -0.1324781 -1.177
-0.099696241 -0.13292833 -1.181
-0.097480774 -0.13292833 -1.181
-0.095265299 -0.13292833 -1.181
-0.093049824 -0.13292833 -1.181
-0.090834357 -0.13292833 -1.181
-0.088618882 -0.13292833 -1.181
-0.086110771 -0.1324781 -1.177
-0.08418794 -0.13292833 -1.181
-0.081972465 -0.13292833 -1.181
-0.079756998 -0.13292833 -1.181
-0.077541523 -0.13292833 -1.181
-0.075581171 -0.13337854 -1.1849999
-0.0733582 -0.13337854 -1.1849999
-0.071375348 -0.13382877 -1.189
-0.068912245 -0.13337854 -1.1849999
-0.066689268 -0.13337854 -1.1849999
-0.064683907 -0.13382877 -1.189
-0.062453426 -0.13382877 -1.189
-0.060222946 -0.13382877 -1.189
-0.058187563 -0.13427898 -1.193
-0.056137174 -0.13472922 -1.197
-0.053891689 -0.13472922 -1.197
-0.051646199 -0.13472922 -1.197
-0.049400713 -0.13472922 -1.197
-0.047155228 -0.13472922 -1.197
-0.044909738 -0.13472922 -1.197
-0.042664252 -0.13472922 -1.197
-0.040418766 -0.13472922 -1.197
-0.038173277 -0.13472922 -1.197
-0.035927791 -0.13472922 -1.197
-0.033682305 -0.13472922 -1.197
-0.031436816 -0.13472922 -1.197
-0.029313266 -0.13529199 -1.202
-0.0270584 -0.13529199 -1.202
-0.024803532 -0.13529199 -1.202
-0.022548666 -0.13529199 -1.202
-0.0202938 -0.13529199 -1.202
-0.018038932 -0.13529199 -1.202
-0.015784066 -0.13529199 -1.202
-0.0135292 -0.13529199 -1.202
-0.011274333 -0.13529199 -1.202
-0.0090494808 -0.13574222 -1.206
-0.006809622 -0.13619244 -1.21
-0.0045397482 -0.13619244 -1.21
-0.0022698741 -0.13619244 -1.21
1.110223e-016 -0.13619244 -1.21
0.0022773778 -0.13664266 -1.214
0.0045547555 -0.13664266 -1.214
0.006832133 -0.13664266 -1.214
0.0090794964 -0.13619244 -1.21
0.011349371 -0.13619244 -1.21
0.013619244 -0.13619244 -1.21
0.015889119 -0.13619244 -1.21
0.018158993 -0.13619244 -1.21
0.020428866 -0.13619244 -1.21
0.022698741 -0.13619244 -1.21
0.024968615 -0.13619244 -1.21
0.027238488 -0.13619244 -1.21
0.029508363 -0.13619244 -1.21
0.031778239 -0.13619244 -1.21
0.034160666 -0.13664266 -1.214
0.036317986 -0.13619244 -1.21
0.038715422 -0.13664266 -1.214
0.04116163 -0.13720544 -1.219
0.043448389 -0.13720544 -1.219
0.045735147 -0.13720544 -1.219
0.048021905 -0.13720544 -1.219
0.05030866 -0.13720544 -1.219
0.052595418 -0.13720544 -1.219
0.054882176 -0.13720544 -1.219
0.057168934 -0.13720544 -1.219
0.059455689 -0.13720544 -1.219
0.061742447 -0.13720544 -1.219
0.064029202 -0.13720544 -1.219
0.066315964 -0.13720544 -1.219
0.068602718 -0.13720544 -1.219
0.070598707 -0.13664266 -1.214
0.072876088 -0.13664266 -1.214
0.07546299 -0.13720544 -1.219
0.078004882 -0.13765568 -1.223
0.080299139 -0.13765568 -1.223
0.082593404 -0.13765568 -1.223
0.08551234 -0.13866867 -1.232
0.087823488 -0.13866867 -1.232
0.090134636 -0.13866867 -1.232
0.092445776 -0.13866867 -1.232
0.094064705 -0.13765568 -1.223
0.09635897 -0.13765568 -1.223
0.098653227 -0.13765568 -1.223
0.10127765 -0.13810588 -1.227
0.10357942 -0.13810588 -1.227
0.10588118 -0.13810588 -1.227
0.10818294 -0.13810588 -1.227
0.11048471 -0.13810588 -1.227
0.11278647 -0.13810588 -1.227
0.11508824 -0.13810588 -1.227
0.11739001 -0.13810588 -1.227
0.11930158 -0.13765568 -1.223
0.12199353 -0.13810588 -1.227
0.1238901 -0.13765568 -1.223
0.12618436 -0.13765568 -1.223
0.12889883 -0.13810588 -1.227
0.1312006 -0.13810588 -1.227
0.13350236 -0.13810588 -1.227
0.13580412 -0.13810588 -1.227
0.13810588 -0.13810588 -1.227
0.14097981 -0.13866867 -1.232
0.14329095 -0.13866867 -1.232
0.14560209 -0.13866867 -1.232
0.14791325 -0.13866867 -1.232
0.15022439 -0.13866867 -1.232
0.15191647 -0.13810588 -1.227
0.15484668 -0.13866867 -1.232
0.15715782 -0.13866867 -1.232
0.15946896 -0.13866867 -1.232
0.1617801 -0.13866867 -1.232
0.16409126 -0.13866867 -1.232
0.16694266 -0.13911888 -1.2359999
0.16926131 -0.13911888 -1.2359999
0.17157996 -0.13911888 -1.2359999
0.17333584 -0.13866867 -1.232
0.17564698 -0.13866867 -1.232
0.17795812 -0.13866867 -1.232
0.18026927 -0.13866867 -1.232
0.18258041 -0.13866867 -1.232
0.18489155 -0.13866867 -1.232
0.18720269 -0.13866867 -1.232
0.18951385 -0.13866867 -1.232
0.19182499 -0.13866867 -1.232
0.19413613 -0.13866867 -1.232
0.19644728 -0.13866867 -1.232
0.19940373 -0.13911888 -1.2359999
0.20172238 -0.13911888 -1.2359999
0.20404103 -0.13911888 -1.2359999
0.20635967 -0.13911888 -1.2359999
0.20867832 -0.13911888 -1.2359999
0.21031414 -0.13866867 -1.232
0.21262528 -0.13866867 -1.232
0.21406412 -0.13810588 -1.227
0.21566056 -0.13765568 -1.223
0.21795481 -0.13765568 -1.223
0.22096942 -0.13810588 -1.227
0.22327119 -0.13810588 -1.227
0.22557294 -0.13810588 -1.227
0.22787471 -0.13810588 -1.227
0.23111445 -0.13866867 -1.232
0.23247825 -0.13810588 -1.227
0.23478001 -0.13810588 -1.227
0.23708177 -0.13810588 -1.227
0.23860316 -0.13765568 -1.223
0.24010952 -0.13720544 -1.219
0.24239628 -0.13720544 -1.219
0.24468303 -0.13720544 -1.219
0.24696979 -0.13720544 -1.219
0.24925655 -0.13720544 -1.219
0.25051156 -0.13664266 -1.214
0.25278893 -0.13664266 -1.214
0.62780774 -0.18740529 -1.665
0.63093114 -0.18740529 -1.665
0.63133264 -0.18211518 -1.618
0.63436788 -0.18211518 -1.618
0.64055473 -0.18301563 -1.626
0.64043838 -0.18211518 -1.618
0.64347363 -0.18211518 -1.618
0.64371186 -0.18132728 -1.6109999
0.646734 -0.18132728 -1.6109999
0.64652956 -0.18042685 -1.603
0.64953667 -0.18042685 -1.603
0.6496942 -0.17963895 -1.596
0.64982551 -0.17885107 -1.589
0.6528064 -0.17885107 -1.589
0.64959669 -0.17716272 -1.574
0.65254939 -0.17716272 -1.574
0.65550208 -0.17716272 -1.574
0.65845484 -0.17716272 -1.574
0.66140753 -0.17716272 -1.574
0.66436023 -0.17716272 -1.574
0.66731292 -0.17716272 -1.574
0.66728479 -0.17637484 -1.567
0.67022437 -0.17637484 -1.567
0.67617106 -0.17716272 -1.574
0.67912382 -0.17716272 -1.574
0.67600971 -0.17558694 -1.5599999
0.67588967 -0.17479905 -1.553
0.67268372 -0.17322329 -1.539
0.67249799 -0.17243539 -1.5319999
0.67845786 -0.17322329 -1.539
0.68134493 -0.17322329 -1.539
0.68423194 -0.17322329 -1.539
0.67818958 -0.17097217 -1.5190001
0.68103915 -0.17097217 -1.5190001
0.68388867 -0.17097217 -1.5190001
0.68673819 -0.17097217 -1.5190001
0.68640989 -0.17018427 -1.512
0.6892463 -0.17018427 -1.512
0.6920827 -0.17018427 -1.512
0.69491911 -0.17018427 -1.512
0.69775552 -0.17018427 -1.512
0.69781184 -0.16950895 -1.506
0.6973803 -0.16872104 -1.499
0.6969226 -0.16793315 -1.492
0.69972146 -0.16793315 -1.492
0.70252037 -0.16793315 -1.492
0.70531923 -0.16793315 -1.492
0.70811814 -0.16793315 -1.492
0.70805812 -0.16725782 -1.4859999
0.7046271 -0.16579461 -1.473
0.70739031 -0.16579461 -1.473
0.71015358 -0.16579461 -1.473
0.71291679 -0.16579461 -1.473
0.7127648 -0.16511926 -1.467
0.71259034 -0.16444393 -1.461
0.7123934 -0.1637686 -1.455
0.70922494 -0.16241792 -1.443
0.71193188 -0.16241792 -1.443
0.71463883 -0.16241792 -1.443
0.71436316 -0.1617426 -1.437
0.71705884 -0.1617426 -1.437
0.71674931 -0.16106726 -1.431
0.71943372 -0.16106726 -1.431
0.71909046 -0.16039191 -1.425
0.71872467 -0.15971659 -1.419
0.72138661 -0.15971659 -1.419
0.72404855 -0.15971659 -1.419
-1.064147 -0.20872335 -1.824
-1.0607252 -0.20872335 -1.824
-1.0573035 -0.20872335 -1.824
-1.048104 -0.20757905 -1.814
-1.0504602 -0.20872335 -1.824
-1.0470384 -0.20872335 -1.824
-1.0436168 -0.20872335 -1.824
-1.0401951 -0.20872335 -1.824
-1.0418891 -0.20975323 -1.8329999
-1.0384505 -0.20975323 -1.8329999
-1.0350119 -0.20975323 -1.8329999
-1.0372012 -0.21089756 -1.8430001
-1.0337437 -0.21089756 -1.8430001
-1.0302864 -0.21089756 -1.8430001
-1.0268291 -0.21089756 -1.8430001
-1.0233718 -0.21089756 -1.8430001
-1.0199145 -0.21089756 -1.8430001
-1.0164571 -0.21089756 -1.8430001
-1.0129998 -0.21089756 -1.8430001
-1.0095425 -0.21089756 -1.8430001
-1.011544 -0.21204188 -1.853
-1.008068 -0.21204188 -1.853
-1.0100133 -0.21318619 -1.863
-1.0065185 -0.21318619 -1.863
-1.0030236 -0.21318619 -1.863
-0.99952871 -0.21318619 -1.863
-1.0013802 -0.21433051 -1.873
-0.99786663 -0.21433051 -1.873
-0.98904413 -0.21318619 -1.863
-0.98025918 -0.21204188 -1.853
-0.9767831 -0.21204188 -1.853
-0.97330701 -0.21204188 -1.853
-0.96983087 -0.21204188 -1.853
-0.96635479 -0.21204188 -1.853
-0.9628787 -0.21204188 -1.853
-0.95940262 -0.21204188 -1.853
-0.95592648 -0.21204188 -1.853
-0.94731039 -0.21089756 -1.8430001
-0.94385302 -0.21089756 -1.8430001
-0.94039571 -0.21089756 -1.8430001
-0.94710588 -0.21318619 -1.863
-0.938546 -0.21204188 -1.853
-0.94011617 -0.21318619 -1.863
-0.94164878 -0.21433051 -1.873
-0.93813521 -0.21433051 -1.873
-0.93462157 -0.21433051 -1.873
-0.93110794 -0.21433051 -1.873
-0.92759436 -0.21433051 -1.873
-0.92408073 -0.21433051 -1.873
-0.9205671 -0.21433051 -1.873
-0.91705352 -0.21433051 -1.873
-0.91353989 -0.21433051 -1.873
-0.91002625 -0.21433051 -1.873
-0.91135252 -0.21547483 -1.883
-0.90782017 -0.21547483 -1.883
-0.90428782 -0.21547483 -1.883
-0.90075541 -0.21547483 -1.883
-0.90246439 -0.21673357 -1.8940001
-0.89891142 -0.21673357 -1.8940001
-0.89535838 -0.21673357 -1.8940001
-0.89180541 -0.21673357 -1.8940001
-0.88309354 -0.21547483 -1.883
-0.88469934 -0.21673357 -1.8940001
-0.87602878 -0.21547483 -1.883
-0.87249643 -0.21547483 -1.883
-0.86896408 -0.21547483 -1.883
-0.86543167 -0.21547483 -1.883
-0.86189932 -0.21547483 -1.883
-0.86338133 -0.21673357 -1.8940001
-0.86436802 -0.21787789 -1.904
-0.86079627 -0.21787789 -1.904
-0.85722452 -0.21787789 -1.904
-0.85365272 -0.21787789 -1.904
-0.85008097 -0.21787789 -1.904
-0.84206325 -0.21673357 -1.8940001
-0.84293741 -0.21787789 -1.904
-0.83936566 -0.21787789 -1.904
-0.83579391 -0.21787789 -1.904
-0.83703011 -0.21913664 -1.915
-0.83778983 -0.22028095 -1.925
-0.82984531 -0.21913664 -1.915
-0.83056754 -0.22028095 -1.925
-0.82695633 -0.22028095 -1.925
-0.81906807 -0.21913664 -1.915
-0.81973404 -0.22028095 -1.925
-0.81612283 -0.22028095 -1.925
-0.81251168 -0.22028095 -1.925
-0.81352282 -0.22153971 -1.936
-0.80528939 -0.22028095 -1.925
-0.80625921 -0.22153971 -1.936
-0.80262744 -0.22153971 -1.936
-0.8035354 -0.22279845 -1.947
-0.79536384 -0.22153971 -1.936
-0.79623055 -0.22279845 -1.947
-0.7925781 -0.22279845 -1.947
-0.79338282 -0.2240572 -1.9579999
-0.78970981 -0.2240572 -1.9579999
-0.78603673 -0.2240572 -1.9579999
-0.78236365 -0.2240572 -1.9579999
-0.77431595 -0.22279845 -1.947
-0.76630944 -0.22153971 -1.936
-0.76267767 -0.22153971 -1.936
-0.75904584 -0.22153971 -1.936
-0.75541407 -0.22153971 -1.936
-0.75178224 -0.22153971 -1.936
-0.74389958 -0.22028095 -1.925
-0.74028844 -0.22028095 -1.925
-0.74088687 -0.22153971 -1.936
-0.7372551 -0.22153971 -1.936
-0.7377916 -0.22279845 -1.947
-0.73828679 -0.2240572 -1.9579999
-0.7387408 -0.22531594 -1.969
-0.7350471 -0.22531594 -1.969
-0.7313534 -0.22531594 -1.969
-0.7276597 -0.22531594 -1.969
-0.723966 -0.22531594 -1.969
-0.7202723 -0.22531594 -1.969
-0.71257532 -0.2240572 -1.9579999
-0.70890224 -0.2240572 -1.9579999
-0.70522922 -0.2240572 -1.9579999
-0.70155615 -0.2240572 -1.9579999
-0.69788307 -0.2240572 -1.9579999
-0.69811004 -0.22531594 -1.969
-0.69441634 -0.22531594 -1.969
-0.69072264 -0.22531594 -1.969
-0.68702894 -0.22531594 -1.969
-0.60172296 -0.2265747 -1.98
-0.60163289 -0.22794788 -1.992
-0.59789604 -0.22794788 -1.992
-0.59415919 -0.22794788 -1.992
-0.59042239 -0.22794788 -1.992
-0.58668554 -0.22794788 -1.992
-0.58616775 -0.22920662 -2.003
-0.58241028 -0.22920662 -2.003
-0.5786528 -0.22920662 -2.003
-0.57173812 -0.22794788 -1.992
-0.57113785 -0.22920662 -2.003
-0.56738031 -0.22920662 -2.003
-0.56362283 -0.22920662 -2.003
-0.55986536 -0.22920662 -2.003
-0.55305386 -0.22794788 -1.992
-0.549317 -0.22794788 -1.992
-0.54558015 -0.22794788 -1.992
-0.5418433 -0.22794788 -1.992
-0.53810644 -0.22794788 -1.992
-0.49094188 -0.21089756 -1.8430001
-0.48748454 -0.21089756 -1.8430001
-0.48402721 -0.21089756 -1.8430001
-0.46570686 -0.20437495 -1.786
-0.46235645 -0.20437495 -1.786
-0.44975397 -0.20025541 -1.75
-0.44417498 -0.19922553 -1.7410001
-0.43862969 -0.19819564 -1.732
-0.43538058 -0.19819564 -1.732
-0.43213147 -0.19819564 -1.732
-0.42888236 -0.19819564 -1.732
-0.42563325 -0.19819564 -1.732
-0.1914573 -0.1297655 -1.1339999
-0.18882914 -0.12942222 -1.131
-0.18670747 -0.12942222 -1.131
-0.18393295 -0.12896448 -1.127
-0.18246411 -0.12942222 -1.131
-0.18082078 -0.1297655 -1.1339999
-0.17869347 -0.1297655 -1.1339999
-0.17718899 -0.13022323 -1.138
-0.17505419 -0.13022323 -1.138
-0.17352717 -0.13068096 -1.142
-0.17138486 -0.13068096 -1.142
-0.16924255 -0.13068096 -1.142
-0.16768554 -0.1311387 -1.146
-0.16553572 -0.1311387 -1.146
-0.16395618 -0.13159642 -1.15
-0.16179886 -0.13159642 -1.15
-0.15964155 -0.13159642 -1.15
-0.15789506 -0.13193971 -1.153
-0.15573211 -0.13193971 -1.153
-0.15356918 -0.13193971 -1.153
-0.15140623 -0.13193971 -1.153
-0.14924328 -0.13193971 -1.153
-0.14708033 -0.13193971 -1.153
-0.14491738 -0.13193971 -1.153
-0.14275444 -0.13193971 -1.153
-0.14059149 -0.13193971 -1.153
-0.13842855 -0.13193971 -1.153
-0.13673833 -0.13239743 -1.1569999
-0.13456789 -0.13239743 -1.1569999
-0.13285516 -0.13285516 -1.161
-0.13067721 -0.13285516 -1.161
-0.12849925 -0.13285516 -1.161
-0.12675652 -0.13331288 -1.165
-0.12457106 -0.13331288 -1.165
-0.1223856 -0.13331288 -1.165
-0.12020014 -0.13331288 -1.165
-0.11801469 -0.13331288 -1.165
-0.11582923 -0.13331288 -1.165
-0.11364377 -0.13331288 -1.165
-0.11145832 -0.13331288 -1.165
-0.10927286 -0.13331288 -1.165
-0.10745509 -0.13377061 -1.169
-0.10526212 -0.13377061 -1.169
-0.10342184 -0.13422833 -1.173
-0.10156655 -0.13468607 -1.177
-0.099696241 -0.1351438 -1.181
-0.097480774 -0.1351438 -1.181
-0.095265299 -0.1351438 -1.181
-0.093049824 -0.1351438 -1.181
-0.090834357 -0.1351438 -1.181
-0.088618882 -0.1351438 -1.181
-0.086110771 -0.13468607 -1.177
-0.08418794 -0.1351438 -1.181
-0.081694834 -0.13468607 -1.177
-0.079486862 -0.13468607 -1.177
-0.077541523 -0.1351438 -1.181
-0.075326048 -0.1351438 -1.181
-0.0733582 -0.13560152 -1.1849999
-0.071135223 -0.13560152 -1.1849999
-0.068912245 -0.13560152 -1.1849999
-0.066689268 -0.13560152 -1.1849999
-0.064466298 -0.13560152 -1.1849999
-0.062453426 -0.13605925 -1.189
-0.060425546 -0.13651697 -1.193
-0.058187563 -0.13651697 -1.193
-0.056137174 -0.13697471 -1.197
-0.053891689 -0.13697471 -1.197
-0.051646199 -0.13697471 -1.197
-0.049400713 -0.13697471 -1.197
-0.047155228 -0.13697471 -1.197
-0.044909738 -0.13697471 -1.197
-0.042664252 -0.13697471 -1.197
-0.040418766 -0.13697471 -1.197
-0.038173277 -0.13697471 -1.197
-0.035927791 -0.13697471 -1.197
-0.033822998 -0.13754687 -1.202
-0.031568132 -0.13754687 -1.202
-0.029313266 -0.13754687 -1.202
-0.0270584 -0.13754687 -1.202
-0.024803532 -0.13754687 -1.202
-0.022548666 -0.13754687 -1.202
-0.0202938 -0.13754687 -1.202
-0.018038932 -0.13754687 -1.202
-0.015784066 -0.13754687 -1.202
-0.0135292 -0.13754687 -1.202
-0.011274333 -0.13754687 -1.202
-0.0090194661 -0.13754687 -1.202
-0.006809622 -0.13846232 -1.21
-0.0045397482 -0.13846232 -1.21
-0.0022698741 -0.13846232 -1.21
1.110223e-016 -0.13846232 -1.21
0.0022773778 -0.13892004 -1.214
0.0045397482 -0.13846232 -1.21
0.006809622 -0.13846232 -1.21
0.0090794964 -0.13846232 -1.21
0.011311851 -0.13800459 -1.206
0.013619244 -0.13846232 -1.21
0.015889119 -0.13846232 -1.21
0.018158993 -0.13846232 -1.21
0.020428866 -0.13846232 -1.21
0.022698741 -0.13846232 -1.21
0.024968615 -0.13846232 -1.21
0.027328532 -0.13892004 -1.214
0.02960591 -0.13892004 -1.214
0.031778239 -0.13846232 -1.21
0.03404811 -0.13846232 -1.21
0.036438044 -0.13892004 -1.214
0.038715422 -0.13892004 -1.214
0.04116163 -0.1394922 -1.219
0.043448389 -0.1394922 -1.219
0.045735147 -0.1394922 -1.219
0.048021905 -0.1394922 -1.219
0.050102308 -0.13892004 -1.214
0.052379686 -0.13892004 -1.214
0.054657064 -0.13892004 -1.214
0.057168934 -0.1394922 -1.219
0.059455689 -0.1394922 -1.219
0.061742447 -0.1394922 -1.219
0.063766576 -0.13892004 -1.214
0.066315964 -0.1394922 -1.219
0.068602718 -0.1394922 -1.219
0.070598707 -0.13892004 -1.214
0.072876088 -0.13892004 -1.214
0.075153463 -0.13892004 -1.214
0.077749752 -0.1394922 -1.219
0.080036506 -0.1394922 -1.219
0.082323261 -0.1394922 -1.219
0.084887661 -0.13994993 -1.223
0.087823488 -0.14097981 -1.232
0.090134636 -0.14097981 -1.232
0.092445776 -0.14097981 -1.232
0.094064705 -0.13994993 -1.223
0.09635897 -0.13994993 -1.223
0.098653227 -0.13994993 -1.223
0.10094749 -0.13994993 -1.223
0.10357942 -0.14040765 -1.227
0.10553601 -0.13994993 -1.223
0.10818294 -0.14040765 -1.227
0.11048471 -0.14040765 -1.227
0.11278647 -0.14040765 -1.227
0.11508824 -0.14040765 -1.227
0.11739001 -0.14040765 -1.227
0.11969177 -0.14040765 -1.227
0.12159584 -0.13994993 -1.223
0.1238901 -0.13994993 -1.223
0.12659706 -0.14040765 -1.227
0.12889883 -0.14040765 -1.227
0.1312006 -0.14040765 -1.227
0.13350236 -0.14040765 -1.227
0.13580412 -0.14040765 -1.227
0.13866867 -0.14097981 -1.232
0.14097981 -0.14097981 -1.232
0.14270942 -0.14040765 -1.227
0.14501119 -0.14040765 -1.227
0.14731294 -0.14040765 -1.227
0.14961471 -0.14040765 -1.227
0.15191647 -0.14040765 -1.227
0.15421824 -0.14040765 -1.227
0.15652001 -0.14040765 -1.227
0.15882178 -0.14040765 -1.227
0.1617801 -0.14097981 -1.232
0.16409126 -0.14097981 -1.232
0.16694266 -0.14143753 -1.2359999
0.16926131 -0.14143753 -1.2359999
0.17102468 -0.14097981 -1.232
0.17333584 -0.14097981 -1.232
0.17564698 -0.14097981 -1.232
0.17795812 -0.14097981 -1.232
0.18026927 -0.14097981 -1.232
0.18258041 -0.14097981 -1.232
0.18489155 -0.14097981 -1.232
0.18720269 -0.14097981 -1.232
0.18951385 -0.14097981 -1.232
0.19182499 -0.14097981 -1.232
0.19413613 -0.14097981 -1.232
0.19708508 -0.14143753 -1.2359999
0.19940373 -0.14143753 -1.2359999
0.20106956 -0.14097981 -1.232
0.20404103 -0.14143753 -1.2359999
0.20635967 -0.14143753 -1.2359999
0.20867832 -0.14143753 -1.2359999
0.21099697 -0.14143753 -1.2359999
0.21262528 -0.14097981 -1.232
0.21493644 -0.14097981 -1.232
0.21636589 -0.14040765 -1.227
0.21866766 -0.14040765 -1.227
0.22186987 -0.14097981 -1.232
0.22418101 -0.14097981 -1.232
0.22649215 -0.14097981 -1.232
0.22880329 -0.14097981 -1.232
0.23111445 -0.14097981 -1.232
0.23342559 -0.14097981 -1.232
0.23478001 -0.14040765 -1.227
0.23708177 -0.14040765 -1.227
0.23860316 -0.13994993 -1.223
0.24010952 -0.1394922 -1.219
0.24239628 -0.1394922 -1.219
0.24468303 -0.1394922 -1.219
0.24696979 -0.1394922 -1.219
0.24925655 -0.1394922 -1.219
0.25051156 -0.13892004 -1.214
0.25278893 -0.13892004 -1.214
0.63133264 -0.18515043 -1.618
0.63436788 -0.18515043 -1.618
0.63740313 -0.18515043 -1.618
0.6376676 -0.1843494 -1.6109999
0.63750821 -0.18343396 -1.603
0.64051533 -0.18343396 -1.603
0.64352244 -0.18343396 -1.603
0.64652956 -0.18343396 -1.603
0.6467002 -0.18263294 -1.596
0.6496942 -0.18263294 -1.596
0.64982551 -0.18183191 -1.589
0.64951974 -0.18091646 -1.581
0.64670777 -0.17931442 -1.567
0.65254939 -0.18011545 -1.574
0.65550208 -0.18011545 -1.574
0.65845484 -0.18011545 -1.574
0.6584661 -0.17931442 -1.567
0.66140568 -0.17931442 -1.567
0.66731292 -0.18011545 -1.574
0.67617106 -0.18011545 -1.574
0.67912382 -0.18011545 -1.574
0.67600971 -0.17851339 -1.5599999
0.67284316 -0.17691135 -1.546
0.67268372 -0.17611034 -1.539
0.67557079 -0.17611034 -1.539
0.67845786 -0.17611034 -1.539
0.68134493 -0.17611034 -1.539
0.68423194 -0.17611034 -1.539
0.67506427 -0.17302068 -1.512
0.67790067 -0.17302068 -1.512
0.68388867 -0.1738217 -1.5190001
0.68673819 -0.1738217 -1.5190001
0.68640989 -0.17302068 -1.512
0.6892463 -0.17302068 -1.512
0.6920827 -0.17302068 -1.512
0.69491911 -0.17302068 -1.512
0.69498664 -0.17233409 -1.506
0.69132483 -0.17073204 -1.492
0.69412369 -0.17073204 -1.492
0.6969226 -0.17073204 -1.492
0.69972146 -0.17073204 -1.492
0.69969517 -0.17004545 -1.4859999
0.70531923 -0.17073204 -1.492
0.70811814 -0.17073204 -1.492
0.70805812 -0.17004545 -1.4859999
0.71084571 -0.17004545 -1.4859999
0.70739031 -0.16855785 -1.473
0.71015358 -0.16855785 -1.473
0.71001285 -0.16787125 -1.467
0.7098496 -0.16718465 -1.461
0.70966393 -0.16649808 -1.455
0.70945567 -0.16581148 -1.449
0.71217388 -0.16581148 -1.449
0.71193188 -0.16512489 -1.443
0.71166742 -0.16443831 -1.437
0.71436316 -0.16443831 -1.437
0.71705884 -0.16443831 -1.437
0.71674931 -0.16375171 -1.431
0.71641725 -0.16306512 -1.425
0.71909046 -0.16306512 -1.425
0.71872467 -0.16237853 -1.419
0.72138661 -0.16237853 -1.419
0.72404855 -0.16237853 -1.419
-1.064147 -0.21214505 -1.824
-1.0607252 -0.21214505 -1.824
-1.0573035 -0.21214505 -1.824
-1.0538819 -0.21214505 -1.824
-1.0504602 -0.21214505 -1.824
-1.0470384 -0.21214505 -1.824
-1.0436168 -0.21214505 -1.824
-1.0453275 -0.21319181 -1.8329999
-1.0418891 -0.21319181 -1.8329999
-1.0384505 -0.21319181 -1.8329999
-1.0350119 -0.21319181 -1.8329999
-1.0265083 -0.21214505 -1.824
