# .PCD v0.7 - Point Cloud Data file format
VERSION 0.7
FIELDS x y z
SIZE 4 4 4
TYPE F F F
COUNT 1 1 1
WIDTH 1501
HEIGHT 1
VIEWPOINT 0 0 0 1 0 0 0
POINTS 1501
DATA ascii
-0.43471274 -0.084821999 -0.94199997
-0.43294564 -0.084821999 -0.94199997
-0.43117851 -0.084821999 -0.94199997
-0.42941138 -0.084821999 -0.94199997
-0.42764425 -0.084821999 -0.94199997
-0.42723343 -0.085092135 -0.94499999
-0.42546067 -0.085092135 -0.94499999
-0.42234287 -0.084821999 -0.94199997
-0.42057574 -0.084821999 -0.94199997
-0.41880864 -0.084821999 -0.94199997
-0.41836968 -0.085092135 -0.94499999
-0.41659692 -0.085092135 -0.94499999
-0.41482416 -0.085092135 -0.94499999
-0.4130514 -0.085092135 -0.94499999
-0.4125843 -0.08536227 -0.94800001
-0.41080594 -0.08536227 -0.94800001
-0.40902755 -0.08536227 -0.94800001
-0.40724918 -0.08536227 -0.94800001
-0.4063262 -0.085542358 -0.94999999
-0.40454406 -0.085542358 -0.94999999
-0.40276194 -0.085542358 -0.94999999
-0.40097982 -0.085542358 -0.94999999
-0.39919767 -0.085542358 -0.94999999
-0.40996552 -0.088243701 -0.98000002
-0.4081271 -0.088243701 -0.98000002
-0.40628868 -0.088243701 -0.98000002
-0.40568838 -0.088513829 -0.98299998
-0.40384436 -0.088513829 -0.98299998
-0.40281823 -0.088693924 -0.98500001
-0.40219164 -0.088964052 -0.98799998
-0.40155384 -0.089234188 -0.991
-0.40211475 -0.089774452 -0.99699998
-0.40024444 -0.089774452 -0.99699998
-0.39957285 -0.090044588 -1
-0.39769694 -0.090044588 -1
-0.39700848 -0.090314724 -1.003
-0.39394507 -0.090044588 -1
-0.41872984 -0.096167617 -1.068
-0.41672635 -0.096167617 -1.068
-0.4158878 -0.096437752 -1.071
-0.41387868 -0.096437752 -1.071
-0.41302326 -0.096707888 -1.074
-0.41100854 -0.096707888 -1.074
-0.40899378 -0.096707888 -1.074
-0.40697902 -0.096707888 -1.074
-0.4064725 -0.097068064 -1.0779999
-0.40557581 -0.0973382 -1.081
-0.40354794 -0.0973382 -1.081
-0.40152007 -0.0973382 -1.081
-0.40207914 -0.097968519 -1.0880001
-0.39893505 -0.097698383 -1.085
-0.39909449 -0.09823864 -1.091
-0.39704785 -0.09823864 -1.091
-0.3950012 -0.09823864 -1.091
-0.39439532 -0.09859883 -1.095
-0.39341608 -0.098868966 -1.098
-0.39135632 -0.098868966 -1.098
-0.38929653 -0.098868966 -1.098
-0.38723677 -0.098868966 -1.098
-0.38517699 -0.098868966 -1.098
-0.66142249 -0.17936882 -1.992
-0.66131747 -0.18035932 -2.003
-0.65394884 -0.17936882 -1.992
-0.65021199 -0.17936882 -1.992
-0.64647514 -0.17936882 -1.992
-0.63886636 -0.17828828 -1.98
-0.63900143 -0.17936882 -1.992
-0.63526458 -0.17936882 -1.992
-0.63152772 -0.17936882 -1.992
-0.62779087 -0.17936882 -1.992
-0.62029469 -0.17828828 -1.98
-0.61658031 -0.17828828 -1.98
-0.61286598 -0.17828828 -1.98
-0.60576749 -0.17729779 -1.969
-0.60207373 -0.17729779 -1.969
-0.58360523 -0.17729779 -1.969
-0.58315128 -0.17828828 -1.98
-0.57943696 -0.17828828 -1.98
-0.57572258 -0.17828828 -1.98
-0.57200825 -0.17828828 -1.98
-0.57173812 -0.17936882 -1.992
-0.56800127 -0.17936882 -1.992
-0.56426442 -0.17936882 -1.992
-0.56052756 -0.17936882 -1.992
-0.55679071 -0.17936882 -1.992
-0.54972219 -0.17828828 -1.98
-0.54600787 -0.17828828 -1.98
-0.54229355 -0.17828828 -1.98
-0.53857923 -0.17828828 -1.98
-0.53189337 -0.17729779 -1.969
-0.52819967 -0.17729779 -1.969
-0.52450597 -0.17729779 -1.969
-0.52081227 -0.17729779 -1.969
-0.51711857 -0.17729779 -1.969
-0.51342487 -0.17729779 -1.969
-0.50973117 -0.17729779 -1.969
-0.50603747 -0.17729779 -1.969
-0.50234377 -0.17729779 -1.969
-0.49865004 -0.17729779 -1.969
-0.49772146 -0.17828828 -1.98
-0.49126264 -0.17729779 -1.969
-0.48756894 -0.17729779 -1.969
-0.48387522 -0.17729779 -1.969
-0.48018152 -0.17729779 -1.969
-0.47648782 -0.17729779 -1.969
-0.47279412 -0.17729779 -1.969
-0.46647972 -0.17630731 -1.9579999
-0.46540672 -0.17729779 -1.969
-0.4591336 -0.17630731 -1.9579999
-0.45801929 -0.17729779 -1.969
-0.45432559 -0.17729779 -1.969
-0.45063189 -0.17729779 -1.969
-0.44693819 -0.17729779 -1.969
-0.44324449 -0.17729779 -1.969
-0.43955079 -0.17729779 -1.969
-0.43585709 -0.17729779 -1.969
-0.4345777 -0.17828828 -1.98
-0.43086335 -0.17828828 -1.98
-0.42477596 -0.17729779 -1.969
-0.42108226 -0.17729779 -1.969
-0.41738856 -0.17729779 -1.969
-0.41852725 -0.17936882 -1.992
-0.41479039 -0.17936882 -1.992
-0.41332343 -0.18035932 -2.003
-0.41201967 -0.18143986 -2.0150001
-0.40580845 -0.18035932 -2.003
-0.39984298 -0.17936882 -1.992
-0.39371997 -0.17828828 -1.98
-0.39000562 -0.17828828 -1.98
-0.3862913 -0.17828828 -1.98
-0.38257694 -0.17828828 -1.98
-0.3767578 -0.17729779 -1.969
-0.3730641 -0.17729779 -1.969
-0.3693704 -0.17729779 -1.969
-0.3656767 -0.17729779 -1.969
-0.361983 -0.17729779 -1.969
-0.3582893 -0.17729779 -1.969
-0.33243337 -0.17729779 -1.969
-0.33057621 -0.17828828 -1.98
-0.32686186 -0.17828828 -1.98
-0.32314751 -0.17828828 -1.98
-0.31943318 -0.17828828 -1.98
-0.31763229 -0.17936882 -1.992
-0.31389543 -0.17936882 -1.992
-0.31015858 -0.17936882 -1.992
-0.30642173 -0.17936882 -1.992
-0.30268487 -0.17936882 -1.992
-0.29894802 -0.17936882 -1.992
-0.2952112 -0.17936882 -1.992
-0.28971848 -0.17828828 -1.98
-0.28600413 -0.17828828 -1.98
-0.28228977 -0.17828828 -1.98
-0.27857545 -0.17828828 -1.98
-0.2748611 -0.17828828 -1.98
-0.26813403 -0.17630731 -1.9579999
-0.13297334 -0.17729779 -1.969
-0.12927964 -0.17729779 -1.969
-0.12558594 -0.17729779 -1.969
-0.12399703 -0.18035932 -2.003
-0.12023954 -0.18035932 -2.003
-0.11648206 -0.18035932 -2.003
-0.11272457 -0.18035932 -2.003
-0.10836866 -0.17936882 -1.992
-0.10463181 -0.17936882 -1.992
-0.099730007 -0.17729779 -1.969
-0.096036308 -0.17729779 -1.969
-0.091826722 -0.17630731 -1.9579999
-0.088648893 -0.17729779 -1.969
-0.084480584 -0.17630731 -1.9579999
-0.081261486 -0.17729779 -1.969
-0.077567786 -0.17729779 -1.969
-0.073461376 -0.17630731 -1.9579999
-0.069396242 -0.17531681 -1.947
-0.065743804 -0.17531681 -1.947
-0.062442169 -0.17630731 -1.9579999
-0.059099264 -0.17729779 -1.969
-0.055405561 -0.17729779 -1.969
-0.051422961 -0.17630731 -1.9579999
-0.048018154 -0.17729779 -1.969
-0.044324446 -0.17729779 -1.969
-0.040630743 -0.17729779 -1.969
-0.036524337 -0.17531681 -1.947
-0.033057619 -0.17630731 -1.9579999
-0.02938455 -0.17630731 -1.9579999
-0.025711481 -0.17630731 -1.9579999
-0.021914601 -0.17531681 -1.947
-0.018365344 -0.17630731 -1.9579999
-0.014692275 -0.17630731 -1.9579999
-0.011081112 -0.17729779 -1.969
-0.0073874081 -0.17729779 -1.969
-0.003693704 -0.17729779 -1.969
0.035366885 -0.099859446 -1.109
0.037447292 -0.099859446 -1.109
0.039527696 -0.099859446 -1.109
0.041608103 -0.099859446 -1.109
0.043688506 -0.099859446 -1.109
0.045768913 -0.099859446 -1.109
0.047849316 -0.099859446 -1.109
0.049929723 -0.099859446 -1.109
0.052010126 -0.099859446 -1.109
0.054090533 -0.099859446 -1.109
0.05637354 -0.10021963 -1.113
0.05846145 -0.10021963 -1.113
0.06054936 -0.10021963 -1.113
0.063031211 -0.10084994 -1.12
0.065132253 -0.10084994 -1.12
0.067413382 -0.10112008 -1.123
0.073733389 -0.10112008 -1.123
0.075840056 -0.10112008 -1.123
0.077946723 -0.10112008 -1.123
0.080053397 -0.10112008 -1.123
0.082160063 -0.10112008 -1.123
0.08426673 -0.10112008 -1.123
0.086373396 -0.10112008 -1.123
0.088480063 -0.10112008 -1.123
0.090586737 -0.10112008 -1.123
0.092693403 -0.10112008 -1.123
0.09480007 -0.10112008 -1.123
0.096906736 -0.10112008 -1.123
0.099013411 -0.10112008 -1.123
0.10148025 -0.10148025 -1.127
0.10359442 -0.10148025 -1.127
0.10570859 -0.10148025 -1.127
0.10782276 -0.10148025 -1.127
0.10993694 -0.10148025 -1.127
0.11205111 -0.10148025 -1.127
0.11416528 -0.10148025 -1.127
0.11627945 -0.10148025 -1.127
0.11839362 -0.10148025 -1.127
0.1205078 -0.10148025 -1.127
0.12218676 -0.10112008 -1.123
0.12429342 -0.10112008 -1.123
0.1264001 -0.10112008 -1.123
0.12850676 -0.10112008 -1.123
0.13061343 -0.10112008 -1.123
0.1327201 -0.10112008 -1.123
0.13482676 -0.10112008 -1.123
0.13693343 -0.10112008 -1.123
0.1390401 -0.10112008 -1.123
0.14114678 -0.10112008 -1.123
0.14325345 -0.10112008 -1.123
0.14536011 -0.10112008 -1.123
0.14707282 -0.10084994 -1.12
0.14917387 -0.10084994 -1.12
0.1512749 -0.10084994 -1.12
0.15337595 -0.10084994 -1.12
0.15547699 -0.10084994 -1.12
0.15800011 -0.10112008 -1.123
0.16010679 -0.10112008 -1.123
0.16221346 -0.10112008 -1.123
0.16432013 -0.10112008 -1.123
0.16642679 -0.10112008 -1.123
0.16853346 -0.10112008 -1.123
0.17018427 -0.10084994 -1.12
0.17228532 -0.10084994 -1.12
0.17438635 -0.10084994 -1.12
0.1764874 -0.10084994 -1.12
0.17858844 -0.10084994 -1.12
0.18068947 -0.10084994 -1.12
0.18279052 -0.10084994 -1.12
0.18489155 -0.10084994 -1.12
0.1869926 -0.10084994 -1.12
0.18841831 -0.10048977 -1.1160001
0.19119468 -0.10084994 -1.12
0.19260539 -0.10048977 -1.1160001
0.19539675 -0.10084994 -1.12
0.1974978 -0.10084994 -1.12
0.19888599 -0.10048977 -1.1160001
0.20097953 -0.10048977 -1.1160001
0.20380092 -0.10084994 -1.12
0.20516661 -0.10048977 -1.1160001
0.20726015 -0.10048977 -1.1160001
0.20935369 -0.10048977 -1.1160001
0.2108788 -0.10021963 -1.113
0.21430612 -0.10084994 -1.12
0.21563429 -0.10048977 -1.1160001
0.21772783 -0.10048977 -1.1160001
0.21982136 -0.10048977 -1.1160001
0.2219149 -0.10048977 -1.1160001
0.22400844 -0.10048977 -1.1160001
0.22610198 -0.10048977 -1.1160001
0.22758208 -0.10021963 -1.113
0.22966999 -0.10021963 -1.113
0.23092496 -0.099859446 -1.109
0.2338458 -0.10021963 -1.113
0.23508579 -0.099859446 -1.109
0.23716618 -0.099859446 -1.109
0.23924659 -0.099859446 -1.109
0.24132699 -0.099859446 -1.109
0.2434074 -0.099859446 -1.109
0.24548781 -0.099859446 -1.109
0.2475682 -0.099859446 -1.109
0.24964862 -0.099859446 -1.109
0.252637 -0.10021963 -1.113
0.25380942 -0.099859446 -1.109
0.25588983 -0.099859446 -1.109
0.2589007 -0.10021963 -1.113
0.26098862 -0.10021963 -1.113
0.26213104 -0.099859446 -1.109
0.26421145 -0.099859446 -1.109
0.26629186 -0.099859446 -1.109
0.26934025 -0.10021963 -1.113
0.27045268 -0.099859446 -1.109
0.27155009 -0.09949927 -1.105
0.27362299 -0.09949927 -1.105
0.27569589 -0.09949927 -1.105
0.27701467 -0.099229135 -1.102
0.27806896 -0.098868966 -1.098
0.28012872 -0.098868966 -1.098
0.2821885 -0.098868966 -1.098
0.28424826 -0.098868966 -1.098
0.28630805 -0.098868966 -1.098
0.28757992 -0.09859883 -1.095
0.28963405 -0.09859883 -1.095
0.2916882 -0.09859883 -1.095
0.2926693 -0.09823864 -1.091
0.29471594 -0.09823864 -1.091
0.29676256 -0.09823864 -1.091
0.2988092 -0.09823864 -1.091
0.30195892 -0.09859883 -1.095
0.30401304 -0.09859883 -1.095
0.3049491 -0.09823864 -1.091
0.30699575 -0.09823864 -1.091
0.30904239 -0.09823864 -1.091
0.31108904 -0.09823864 -1.091
0.31227466 -0.097968519 -1.0880001
0.31431565 -0.097968519 -1.0880001
0.31548434 -0.097698383 -1.085
0.31634915 -0.0973382 -1.081
0.31837702 -0.0973382 -1.081
0.32040489 -0.0973382 -1.081
0.32243279 -0.0973382 -1.081
0.32446066 -0.0973382 -1.081
0.32648852 -0.0973382 -1.081
0.32851642 -0.0973382 -1.081
0.33054429 -0.0973382 -1.081
0.33257216 -0.0973382 -1.081
0.33460006 -0.0973382 -1.081
0.33662793 -0.0973382 -1.081
0.3386558 -0.0973382 -1.081
0.3406837 -0.0973382 -1.081
0.34271157 -0.0973382 -1.081
0.34473944 -0.0973382 -1.081
0.34676734 -0.0973382 -1.081
0.34879521 -0.0973382 -1.081
0.34984946 -0.097068064 -1.0779999
0.35187173 -0.097068064 -1.0779999
0.35389397 -0.097068064 -1.0779999
0.35591623 -0.097068064 -1.0779999
0.35661033 -0.096707888 -1.074
0.35762334 -0.096437752 -1.071
0.35862508 -0.096167617 -1.068
0.3592779 -0.095807441 -1.064
0.36127391 -0.095807441 -1.064
0.36224562 -0.095537305 -1.061
0.364236 -0.095537305 -1.061
0.36519083 -0.095267169 -1.058
0.36717555 -0.095267169 -1.058
0.36916029 -0.095267169 -1.058
0.37114501 -0.095267169 -1.058
0.3741878 -0.095537305 -1.061
0.37617815 -0.095537305 -1.061
0.37816852 -0.095537305 -1.061
0.38015887 -0.095537305 -1.061
0.38106868 -0.095267169 -1.058
0.37834671 -0.094096594 -1.045
0.3792153 -0.093826465 -1.0420001
0.38007259 -0.09355633 -1.039
0.3820217 -0.09355633 -1.039
-0.49416471 -0.082360789 -0.89600003
-0.49248388 -0.082360789 -0.89600003
-0.4897075 -0.082176939 -0.89399999
-0.48912221 -0.082360789 -0.89600003
-0.48744139 -0.082360789 -0.89600003
-0.48576057 -0.082360789 -0.89600003
-0.48516023 -0.082544625 -0.898
-0.48347566 -0.082544625 -0.898
-0.48447365 -0.083004229 -0.903
-0.48171043 -0.082820386 -0.90100002
-0.48108572 -0.083004229 -0.903
-0.48045352 -0.083188064 -0.90499997
-0.48140091 -0.083647676 -0.91000003
-0.4796938 -0.083647676 -0.91000003
-0.47956246 -0.083923429 -0.91299999
-0.47784975 -0.083923429 -0.91299999
-0.47718006 -0.084107272 -0.91500002
-0.47546357 -0.084107272 -0.91500002
-0.4737471 -0.084107272 -0.91500002
-0.47203064 -0.084107272 -0.91500002
-0.47031415 -0.084107272 -0.91500002
-0.46859768 -0.084107272 -0.91500002
-0.47533226 -0.085945681 -0.935
-0.47357824 -0.085945681 -0.935
-0.47182426 -0.085945681 -0.935
-0.47007027 -0.085945681 -0.935
-0.46831629 -0.085945681 -0.935
-0.46656227 -0.085945681 -0.935
-0.46480829 -0.085945681 -0.935
-0.4630543 -0.085945681 -0.935
-0.46130031 -0.085945681 -0.935
-0.4605293 -0.086129524 -0.93699998
-0.46024039 -0.086405285 -0.94
-0.45701379 -0.086129524 -0.93699998
-0.45525604 -0.086129524 -0.93699998
-0.45495027 -0.086405285 -0.94
-0.45174056 -0.086129524 -0.93699998
-0.44998282 -0.086129524 -0.93699998
-0.44822508 -0.086129524 -0.93699998
-0.44646731 -0.086129524 -0.93699998
-0.44470957 -0.086129524 -0.93699998
-0.44295183 -0.086129524 -0.93699998
-0.44119409 -0.086129524 -0.93699998
-0.43943635 -0.086129524 -0.93699998
-0.43767861 -0.086129524 -0.93699998
-0.43592086 -0.086129524 -0.93699998
-0.43555316 -0.086405285 -0.94
-0.43471274 -0.086589128 -0.94199997
-0.43294564 -0.086589128 -0.94199997
-0.43117851 -0.086589128 -0.94199997
-0.42941138 -0.086589128 -0.94199997
-0.42900619 -0.086864889 -0.94499999
-0.42723343 -0.086864889 -0.94499999
-0.42411 -0.086589128 -0.94199997
-0.42234287 -0.086589128 -0.94199997
-0.42057574 -0.086589128 -0.94199997
-0.42014241 -0.086864889 -0.94499999
-0.41836968 -0.086864889 -0.94499999
-0.41791946 -0.08714065 -0.94800001
-0.41482416 -0.086864889 -0.94499999
-0.4143627 -0.08714065 -0.94800001
-0.41345474 -0.087324493 -0.94999999
-0.41167259 -0.087324493 -0.94999999
-0.40902755 -0.08714065 -0.94800001
-0.40724918 -0.08714065 -0.94800001
-0.40547079 -0.08714065 -0.94800001
-0.40369239 -0.08714065 -0.94800001
-0.40191403 -0.08714065 -0.94800001
-0.40013564 -0.08714065 -0.94800001
-0.41054329 -0.089806348 -0.977
-0.40871051 -0.089806348 -0.977
-0.4081271 -0.090082109 -0.98000002
-0.40753242 -0.09035787 -0.98299998
-0.40568838 -0.09035787 -0.98299998
-0.40466601 -0.090541713 -0.98500001
-0.40404508 -0.090817466 -0.98799998
-0.40219164 -0.090817466 -0.98799998
-0.40155384 -0.091093235 -0.991
-0.40211475 -0.091644756 -0.99699998
-0.40144879 -0.091920517 -1
-0.39957285 -0.091920517 -1
-0.39769694 -0.091920517 -1
-0.39582101 -0.091920517 -1
-0.39394507 -0.091920517 -1
-0.41990605 -0.098446876 -1.071
-0.41789693 -0.098446876 -1.071
-0.4158878 -0.098446876 -1.071
-0.41503802 -0.098722637 -1.074
-0.41302326 -0.098722637 -1.074
-0.41100854 -0.098722637 -1.074
-0.40899378 -0.098722637 -1.074
-0.40697902 -0.098722637 -1.074
-0.40496427 -0.098722637 -1.074
-0.40445027 -0.099090315 -1.0779999
-0.402428 -0.099090315 -1.0779999
-0.40152007 -0.099366076 -1.081
-0.39949217 -0.099366076 -1.081
-0.39893505 -0.099733762 -1.085
-0.39799711 -0.10000953 -1.0880001
-0.3959561 -0.10000953 -1.0880001
-0.3950012 -0.10028528 -1.091
-0.39439532 -0.10065297 -1.095
-0.39234117 -0.10065297 -1.095
-0.39135632 -0.10092873 -1.098
-0.38929653 -0.10092873 -1.098
-0.38723677 -0.10092873 -1.098
-0.38517699 -0.10092873 -1.098
-0.3845129 -0.10129641 -1.102
-0.65000939 -0.18200262 -1.98
-0.64629501 -0.18200262 -1.98
-0.64258069 -0.18200262 -1.98
-0.63886636 -0.18200262 -1.98
-0.63515204 -0.18200262 -1.98
-0.63143766 -0.18200262 -1.98
-0.62772334 -0.18200262 -1.98
-0.62400901 -0.18200262 -1.98
-0.62029469 -0.18200262 -1.98
-0.61658031 -0.18200262 -1.98
-0.61286598 -0.18200262 -1.98
-0.57943696 -0.18200262 -1.98
-0.57572258 -0.18200262 -1.98
-0.57200825 -0.18200262 -1.98
-0.56829393 -0.18200262 -1.98
-0.56457955 -0.18200262 -1.98
-0.56086522 -0.18200262 -1.98
-0.56052756 -0.18310566 -1.992
-0.55343658 -0.18200262 -1.98
-0.54972219 -0.18200262 -1.98
-0.54297447 -0.1809915 -1.969
-0.53928077 -0.1809915 -1.969
-0.53558707 -0.1809915 -1.969
-0.53189337 -0.1809915 -1.969
-0.52524883 -0.17998037 -1.9579999
-0.52157575 -0.17998037 -1.9579999
-0.52081227 -0.1809915 -1.969
-0.51711857 -0.1809915 -1.969
-0.51055658 -0.17998037 -1.9579999
-0.5068835 -0.17998037 -1.9579999
-0.50321043 -0.17998037 -1.9579999
-0.50234377 -0.1809915 -1.969
-0.50143582 -0.18200262 -1.98
-0.49772146 -0.18200262 -1.98
-0.49126264 -0.1809915 -1.969
-0.49029279 -0.18200262 -1.98
-0.48387522 -0.1809915 -1.969
-0.48018152 -0.1809915 -1.969
-0.47648782 -0.1809915 -1.969
-0.47279412 -0.1809915 -1.969
-0.46910042 -0.1809915 -1.969
-0.46540672 -0.1809915 -1.969
-0.46171302 -0.1809915 -1.969
-0.45801929 -0.1809915 -1.969
-0.45432559 -0.1809915 -1.969
-0.45063189 -0.1809915 -1.969
-0.44693819 -0.1809915 -1.969
-0.44324449 -0.1809915 -1.969
-0.43955079 -0.1809915 -1.969
-0.43342212 -0.17998037 -1.9579999
-0.42974904 -0.17998037 -1.9579999
-0.42607597 -0.17998037 -1.9579999
-0.42240292 -0.17998037 -1.9579999
-0.41872984 -0.17998037 -1.9579999
-0.41972035 -0.18200262 -1.98
-0.416006 -0.18200262 -1.98
-0.41479039 -0.18310566 -1.992
-0.41332343 -0.1841168 -2.003
-0.41201967 -0.18521985 -2.0150001
-0.40823966 -0.18521985 -2.0150001
-0.40205097 -0.1841168 -2.003
-0.39610615 -0.18310566 -1.992
-0.3923693 -0.18310566 -1.992
-0.38863245 -0.18310566 -1.992
-0.38489559 -0.18310566 -1.992
-0.37886262 -0.18200262 -1.98
-0.3730641 -0.1809915 -1.969
-0.37143394 -0.18200262 -1.98
-0.36771959 -0.18200262 -1.98
-0.361983 -0.1809915 -1.969
-0.3582893 -0.1809915 -1.969
-0.35459557 -0.1809915 -1.969
-0.3269031 -0.17998037 -1.9579999
-0.32504594 -0.1809915 -1.969
-0.32135224 -0.1809915 -1.969
-0.31765854 -0.1809915 -1.969
-0.31396484 -0.1809915 -1.969
-0.31389543 -0.18310566 -1.992
-0.31015858 -0.18310566 -1.992
-0.30642173 -0.18310566 -1.992
-0.30086148 -0.18200262 -1.98
-0.29714715 -0.18200262 -1.98
-0.2934328 -0.18200262 -1.98
-0.28971848 -0.18200262 -1.98
-0.28441522 -0.1809915 -1.969
-0.27915323 -0.17998037 -1.9579999
-0.27548015 -0.17998037 -1.9579999
-0.27180707 -0.17998037 -1.9579999
-0.13297334 -0.1809915 -1.969
-0.12927964 -0.1809915 -1.969
-0.12558594 -0.1809915 -1.969
-0.12399703 -0.1841168 -2.003
-0.12023954 -0.1841168 -2.003
-0.11648206 -0.1841168 -2.003
-0.11272457 -0.1841168 -2.003
-0.10836866 -0.18310566 -1.992
-0.10463181 -0.18310566 -1.992
-0.099730007 -0.1809915 -1.969
-0.096036308 -0.1809915 -1.969
-0.091826722 -0.17998037 -1.9579999
-0.088648893 -0.1809915 -1.969
-0.084480584 -0.17998037 -1.9579999
-0.080807514 -0.17998037 -1.9579999
-0.077567786 -0.1809915 -1.969
-0.073461376 -0.17998037 -1.9579999
-0.069788307 -0.17998037 -1.9579999
-0.066115238 -0.17998037 -1.9579999
-0.062442169 -0.17998037 -1.9579999
-0.059099264 -0.1809915 -1.969
-0.055405561 -0.1809915 -1.969
-0.048018154 -0.1809915 -1.969
-0.044324446 -0.1809915 -1.969
-0.040630743 -0.1809915 -1.969
-0.036524337 -0.17896925 -1.947
-0.033057619 -0.17998037 -1.9579999
-0.02938455 -0.17998037 -1.9579999
-0.025711481 -0.17998037 -1.9579999
-0.022038413 -0.17998037 -1.9579999
-0.018365344 -0.17998037 -1.9579999
-0.014692275 -0.17998037 -1.9579999
-0.011019207 -0.17998037 -1.9579999
-0.0073461374 -0.17998037 -1.9579999
-0.0036730687 -0.17998037 -1.9579999
0.035366885 -0.10193985 -1.109
0.037447292 -0.10193985 -1.109
0.039385129 -0.10157217 -1.105
0.041608103 -0.10193985 -1.109
0.04353093 -0.10157217 -1.105
0.045768913 -0.10193985 -1.109
0.047849316 -0.10193985 -1.109
0.049929723 -0.10193985 -1.109
0.052010126 -0.10193985 -1.109
0.054285634 -0.10230754 -1.113
0.05637354 -0.10230754 -1.113
0.058251344 -0.10193985 -1.109
0.06054936 -0.10230754 -1.113
0.062806107 -0.1025833 -1.1160001
0.064899638 -0.1025833 -1.1160001
0.073733389 -0.10322674 -1.123
0.075840056 -0.10322674 -1.123
0.077946723 -0.10322674 -1.123
0.080053397 -0.10322674 -1.123
0.082160063 -0.10322674 -1.123
0.08426673 -0.10322674 -1.123
0.086373396 -0.10322674 -1.123
0.088480063 -0.10322674 -1.123
0.090586737 -0.10322674 -1.123
0.092693403 -0.10322674 -1.123
0.09480007 -0.10322674 -1.123
0.096906736 -0.10322674 -1.123
0.099013411 -0.10322674 -1.123
0.10112008 -0.10322674 -1.123
0.10359442 -0.10359442 -1.127
0.10570859 -0.10359442 -1.127
0.10782276 -0.10359442 -1.127
0.10993694 -0.10359442 -1.127
0.11205111 -0.10359442 -1.127
0.11416528 -0.10359442 -1.127
0.11627945 -0.10359442 -1.127
0.11839362 -0.10359442 -1.127
0.1205078 -0.10359442 -1.127
0.12218676 -0.10322674 -1.123
0.12429342 -0.10322674 -1.123
0.1264001 -0.10322674 -1.123
0.12850676 -0.10322674 -1.123
0.13107866 -0.10359442 -1.127
0.13319282 -0.10359442 -1.127
0.135307 -0.10359442 -1.127
0.13742118 -0.10359442 -1.127
0.13953534 -0.10359442 -1.127
0.14164951 -0.10359442 -1.127
0.14325345 -0.10322674 -1.123
0.14536011 -0.10322674 -1.123
0.14707282 -0.10295098 -1.12
0.14917387 -0.10295098 -1.12
0.1512749 -0.10295098 -1.12
0.15282819 -0.1025833 -1.1160001
0.15547699 -0.10295098 -1.12
0.15757804 -0.10295098 -1.12
0.15967907 -0.10295098 -1.12
0.1617801 -0.10295098 -1.12
0.16388115 -0.10295098 -1.12
0.16598219 -0.10295098 -1.12
0.16808324 -0.10295098 -1.12
0.17018427 -0.10295098 -1.12
0.17228532 -0.10295098 -1.12
0.17438635 -0.10295098 -1.12
0.1764874 -0.10295098 -1.12
0.17858844 -0.10295098 -1.12
0.18004416 -0.1025833 -1.1160001
0.18279052 -0.10295098 -1.12
0.18489155 -0.10295098 -1.12
0.1869926 -0.10295098 -1.12
0.18960014 -0.10322674 -1.123
0.19119468 -0.10295098 -1.12
0.19329572 -0.10295098 -1.12
0.19539675 -0.10295098 -1.12
0.1974978 -0.10295098 -1.12
0.19888599 -0.1025833 -1.1160001
0.20097953 -0.1025833 -1.1160001
0.20380092 -0.10295098 -1.12
0.20516661 -0.1025833 -1.1160001
0.20726015 -0.1025833 -1.1160001
0.2087909 -0.10230754 -1.113
0.2108788 -0.10230754 -1.113
0.21354075 -0.1025833 -1.1160001
0.21563429 -0.1025833 -1.1160001
0.21772783 -0.1025833 -1.1160001
0.21923044 -0.10230754 -1.113
0.2219149 -0.1025833 -1.1160001
0.22400844 -0.1025833 -1.1160001
0.22549416 -0.10230754 -1.113
0.22758208 -0.10230754 -1.113
0.22884457 -0.10193985 -1.109
0.23092496 -0.10193985 -1.109
0.23300537 -0.10193985 -1.109
0.23508579 -0.10193985 -1.109
0.23716618 -0.10193985 -1.109
0.23924659 -0.10193985 -1.109
0.24132699 -0.10193985 -1.109
0.2434074 -0.10193985 -1.109
0.24548781 -0.10193985 -1.109
0.2475682 -0.10193985 -1.109
0.24964862 -0.10193985 -1.109
0.252637 -0.10230754 -1.113
0.25472489 -0.10230754 -1.113
0.25681281 -0.10230754 -1.113
0.2589007 -0.10230754 -1.113
0.26098862 -0.10230754 -1.113
0.26307654 -0.10230754 -1.113
0.26516443 -0.10230754 -1.113
0.26725236 -0.10230754 -1.113
0.26837227 -0.10193985 -1.109
0.27045268 -0.10193985 -1.109
0.27155009 -0.10157217 -1.105
0.27362299 -0.10157217 -1.105
0.2749474 -0.10129641 -1.102
0.27701467 -0.10129641 -1.102
0.27806896 -0.10092873 -1.098
0.28012872 -0.10092873 -1.098
0.2821885 -0.10092873 -1.098
0.28424826 -0.10092873 -1.098
0.28630805 -0.10092873 -1.098
0.28757992 -0.10065297 -1.095
0.28963405 -0.10065297 -1.095
0.2916882 -0.10065297 -1.095
0.2926693 -0.10028528 -1.091
0.29471594 -0.10028528 -1.091
0.29676256 -0.10028528 -1.091
0.2988092 -0.10028528 -1.091
0.30085585 -0.10028528 -1.091
0.30290249 -0.10028528 -1.091
0.3049491 -0.10028528 -1.091
0.30699575 -0.10028528 -1.091
0.30904239 -0.10028528 -1.091
0.31108904 -0.10028528 -1.091
0.31227466 -0.10000953 -1.0880001
0.31431565 -0.10000953 -1.0880001
0.31548434 -0.099733762 -1.085
0.31751975 -0.099733762 -1.085
0.31955513 -0.099733762 -1.085
0.32159051 -0.099733762 -1.085
0.32243279 -0.099366076 -1.081
0.32446066 -0.099366076 -1.081
0.32648852 -0.099366076 -1.081
0.32851642 -0.099366076 -1.081
0.33054429 -0.099366076 -1.081
0.33257216 -0.099366076 -1.081
0.33367145 -0.099090315 -1.0779999
0.33662793 -0.099366076 -1.081
0.3386558 -0.099366076 -1.081
0.3406837 -0.099366076 -1.081
0.34271157 -0.099366076 -1.081
0.34473944 -0.099366076 -1.081
0.34676734 -0.099366076 -1.081
0.34879521 -0.099366076 -1.081
0.35082307 -0.099366076 -1.081
0.35187173 -0.099090315 -1.0779999
0.35389397 -0.099090315 -1.0779999
0.35591623 -0.099090315 -1.0779999
0.35561422 -0.098446876 -1.071
0.35762334 -0.098446876 -1.071
0.35862508 -0.098171107 -1.068
0.3592779 -0.097803429 -1.064
0.36127391 -0.097803429 -1.064
0.36224562 -0.097527668 -1.061
0.364236 -0.097527668 -1.061
0.36519083 -0.097251907 -1.058
0.36717555 -0.097251907 -1.058
0.37020707 -0.097527668 -1.061
0.37219742 -0.097527668 -1.061
0.3741878 -0.097527668 -1.061
0.37617815 -0.097527668 -1.061
0.37816852 -0.097527668 -1.061
0.38015887 -0.097527668 -1.061
0.37998813 -0.096976139 -1.0549999
0.3772606 -0.095781185 -1.0420001
0.3792153 -0.095781185 -1.0420001
0.38007259 -0.095505424 -1.039
0.3820217 -0.095505424 -1.039
-0.49752638 -0.084041618 -0.89600003
-0.49584556 -0.084041618 -0.89600003
-0.49416471 -0.084041618 -0.89600003
-0.49248388 -0.084041618 -0.89600003
-0.48806417 -0.083572634 -0.89099997
-0.4880304 -0.08385402 -0.89399999
-0.48635334 -0.08385402 -0.89399999
-0.48576057 -0.084041618 -0.89600003
-0.48516023 -0.084229209 -0.898
-0.48347566 -0.084229209 -0.898
-0.48447365 -0.084698193 -0.903
-0.4801065 -0.084229209 -0.898
-0.4800202 -0.084510602 -0.90100002
-0.47939175 -0.084698193 -0.903
-0.48140091 -0.085354768 -0.91000003
-0.4796938 -0.085354768 -0.91000003
-0.47956246 -0.085636154 -0.91299999
-0.47784975 -0.085636154 -0.91299999
-0.47718006 -0.085823752 -0.91500002
-0.47546357 -0.085823752 -0.91500002
-0.4737471 -0.085823752 -0.91500002
-0.47203064 -0.085823752 -0.91500002
-0.47031415 -0.085823752 -0.91500002
-0.46859768 -0.085823752 -0.91500002
-0.47533226 -0.087699674 -0.935
-0.47357824 -0.087699674 -0.935
-0.47182426 -0.087699674 -0.935
-0.47007027 -0.087699674 -0.935
-0.46831629 -0.087699674 -0.935
-0.46656227 -0.087699674 -0.935
-0.46480829 -0.087699674 -0.935
-0.4630543 -0.087699674 -0.935
-0.46130031 -0.087699674 -0.935
-0.4595463 -0.087699674 -0.935
-0.46024039 -0.088168658 -0.94
-0.45701379 -0.087887265 -0.93699998
-0.45525604 -0.087887265 -0.93699998
-0.4534983 -0.087887265 -0.93699998
-0.45174056 -0.087887265 -0.93699998
-0.44998282 -0.087887265 -0.93699998
-0.44822508 -0.087887265 -0.93699998
-0.44646731 -0.087887265 -0.93699998
-0.44470957 -0.087887265 -0.93699998
-0.44437003 -0.088168658 -0.94
-0.44119409 -0.087887265 -0.93699998
-0.43943635 -0.087887265 -0.93699998
-0.43767861 -0.087887265 -0.93699998
-0.43592086 -0.087887265 -0.93699998
-0.43555316 -0.088168658 -0.94
-0.43378979 -0.088168658 -0.94
-0.43294564 -0.088356249 -0.94199997
-0.43117851 -0.088356249 -0.94199997
-0.42941138 -0.088356249 -0.94199997
-0.42764425 -0.088356249 -0.94199997
-0.42587712 -0.088356249 -0.94199997
-0.42411 -0.088356249 -0.94199997
-0.42234287 -0.088356249 -0.94199997
-0.42057574 -0.088356249 -0.94199997
-0.41880864 -0.088356249 -0.94199997
-0.41704151 -0.088356249 -0.94199997
-0.41659692 -0.088637643 -0.94499999
-0.41482416 -0.088637643 -0.94499999
-0.4143627 -0.088919036 -0.94800001
-0.41345474 -0.089106619 -0.94999999
-0.41167259 -0.089106619 -0.94999999
-0.40902755 -0.088919036 -0.94800001
-0.40724918 -0.088919036 -0.94800001
-0.40547079 -0.088919036 -0.94800001
-0.40369239 -0.088919036 -0.94800001
-0.40191403 -0.088919036 -0.94800001
-0.40013564 -0.088919036 -0.94800001
-0.39835727 -0.088919036 -0.94800001
-0.40996552 -0.091920517 -0.98000002
-0.4081271 -0.091920517 -0.98000002
-0.40753242 -0.092201903 -0.98299998
-0.40568838 -0.092201903 -0.98299998
-0.40466601 -0.092389502 -0.98500001
-0.40404508 -0.092670888 -0.98799998
-0.40219164 -0.092670888 -0.98799998
-0.40276945 -0.093233667 -0.99400002
-0.40211475 -0.093515053 -0.99699998
-0.40144879 -0.093796447 -1
-0.39957285 -0.093796447 -1
-0.39769694 -0.093796447 -1
-0.39582101 -0.093796447 -1
-0.39276323 -0.093515053 -0.99699998
-0.41990605 -0.10045599 -1.071
-0.4190675 -0.10073739 -1.074
-0.41705278 -0.10073739 -1.074
-0.41503802 -0.10073739 -1.074
-0.41302326 -0.10073739 -1.074
-0.41100854 -0.10073739 -1.074
-0.40899378 -0.10073739 -1.074
-0.40697902 -0.10073739 -1.074
-0.4064725 -0.10111257 -1.0779999
-0.40445027 -0.10111257 -1.0779999
-0.40354794 -0.10139395 -1.081
-0.40152007 -0.10139395 -1.081
-0.40097043 -0.10176915 -1.085
-0.40003812 -0.10205054 -1.0880001
-0.39909449 -0.10233192 -1.091
-0.39704785 -0.10233192 -1.091
-0.39644945 -0.10270711 -1.095
-0.39439532 -0.10270711 -1.095
-0.39234117 -0.10270711 -1.095
-0.39135632 -0.1029885 -1.098
-0.38929653 -0.1029885 -1.098
-0.38723677 -0.1029885 -1.098
-0.38517699 -0.1029885 -1.098
-0.38311723 -0.1029885 -1.098
-0.65372372 -0.18571697 -1.98
-0.65000939 -0.18571697 -1.98
-0.64629501 -0.18571697 -1.98
-0.64258069 -0.18571697 -1.98
-0.63886636 -0.18571697 -1.98
-0.63515204 -0.18571697 -1.98
-0.63143766 -0.18571697 -1.98
-0.62772334 -0.18571697 -1.98
-0.62400901 -0.18571697 -1.98
-0.62029469 -0.18571697 -1.98
-0.61658031 -0.18571697 -1.98
-0.61286598 -0.18571697 -1.98
-0.57572258 -0.18571697 -1.98
-0.57200825 -0.18571697 -1.98
-0.56829393 -0.18571697 -1.98
-0.56457955 -0.18571697 -1.98
-0.56086522 -0.18571697 -1.98
-0.5571509 -0.18571697 -1.98
-0.55343658 -0.18571697 -1.98
-0.54666817 -0.1846852 -1.969
-0.53994113 -0.18365344 -1.9579999
-0.53928077 -0.1846852 -1.969
-0.53259498 -0.18365344 -1.9579999
-0.5289219 -0.18365344 -1.9579999
-0.52524883 -0.18365344 -1.9579999
-0.52157575 -0.18365344 -1.9579999
-0.52081227 -0.1846852 -1.969
-0.51711857 -0.1846852 -1.969
-0.51342487 -0.1846852 -1.969
-0.50973117 -0.1846852 -1.969
-0.50603747 -0.1846852 -1.969
-0.50234377 -0.1846852 -1.969
-0.49865004 -0.1846852 -1.969
-0.49772146 -0.18571697 -1.98
-0.49126264 -0.1846852 -1.969
-0.49029279 -0.18571697 -1.98
-0.48657846 -0.18571697 -1.98
-0.48286411 -0.18571697 -1.98
-0.47914976 -0.18571697 -1.98
-0.47543544 -0.18571697 -1.98
-0.47457999 -0.18684252 -1.992
-0.47084314 -0.18684252 -1.992
-0.46429241 -0.18571697 -1.98
-0.46057808 -0.18571697 -1.98
-0.45686373 -0.18571697 -1.98
-0.45063189 -0.1846852 -1.969
-0.44693819 -0.1846852 -1.969
-0.44324449 -0.1846852 -1.969
-0.43709517 -0.18365344 -1.9579999
-0.43342212 -0.18365344 -1.9579999
-0.42974904 -0.18365344 -1.9579999
-0.4236823 -0.18262169 -1.947
-0.41528377 -0.18055816 -1.925
-0.41167259 -0.18055816 -1.925
-0.412725 -0.18262169 -1.947
-0.40907258 -0.18262169 -1.947
-0.41229168 -0.18571697 -1.98
-0.41332343 -0.18787429 -2.003
-0.40956593 -0.18787429 -2.003
-0.40580845 -0.18787429 -2.003
-0.39743429 -0.18571697 -1.98
-0.39153263 -0.1846852 -1.969
-0.38783893 -0.1846852 -1.969
-0.3862913 -0.18571697 -1.98
-0.3804515 -0.1846852 -1.969
-0.37465301 -0.18365344 -1.9579999
-0.3730641 -0.1846852 -1.969
-0.3693704 -0.1846852 -1.969
-0.36771959 -0.18571697 -1.98
-0.361983 -0.1846852 -1.969
-0.3582893 -0.1846852 -1.969
-0.35261461 -0.18365344 -1.9579999
-0.34894153 -0.18365344 -1.9579999
-0.34526846 -0.18365344 -1.9579999
-0.34159538 -0.18365344 -1.9579999
-0.33612707 -0.1846852 -1.969
-0.33057618 -0.18365344 -1.9579999
-0.3269031 -0.18365344 -1.9579999
-0.32504594 -0.1846852 -1.969
-0.32135224 -0.1846852 -1.969
-0.31765854 -0.1846852 -1.969
-0.31571883 -0.18571697 -1.98
-0.31200451 -0.18571697 -1.98
-0.31015858 -0.18684252 -1.992
-0.30642173 -0.18684252 -1.992
-0.30086148 -0.18571697 -1.98
-0.29714715 -0.18571697 -1.98
-0.2934328 -0.18571697 -1.98
-0.28810892 -0.1846852 -1.969
-0.28441522 -0.1846852 -1.969
-0.27915323 -0.18365344 -1.9579999
-0.27393252 -0.18262169 -1.947
-0.27028009 -0.18262169 -1.947
-0.13437654 -0.18158992 -1.936
-0.13223048 -0.18365344 -1.9579999
-0.1285574 -0.18365344 -1.9579999
-0.12418275 -0.18262169 -1.947
-0.12399703 -0.18787429 -2.003
-0.12023954 -0.18787429 -2.003
-0.11648206 -0.18787429 -2.003
-0.11272457 -0.18787429 -2.003
-0.10896709 -0.18787429 -2.003
-0.10463181 -0.18684252 -1.992
-0.095499784 -0.18365344 -1.9579999
-0.091826722 -0.18365344 -1.9579999
-0.088648893 -0.1846852 -1.969
-0.084480584 -0.18365344 -1.9579999
-0.080807514 -0.18365344 -1.9579999
-0.077567786 -0.1846852 -1.969
-0.073461376 -0.18365344 -1.9579999
-0.069396242 -0.18262169 -1.947
-0.065743804 -0.18262169 -1.947
-0.062442169 -0.18365344 -1.9579999
-0.059099264 -0.1846852 -1.969
-0.055405561 -0.1846852 -1.969
-0.036524337 -0.18262169 -1.947
-0.033057619 -0.18365344 -1.9579999
-0.02938455 -0.18365344 -1.9579999
-0.025711481 -0.18365344 -1.9579999
-0.022038413 -0.18365344 -1.9579999
-0.018365344 -0.18365344 -1.9579999
-0.014774816 -0.1846852 -1.969
-0.011081112 -0.1846852 -1.969
-0.0073461374 -0.18365344 -1.9579999
-0.0036730687 -0.18365344 -1.9579999
0.035366885 -0.10402025 -1.109
0.037447292 -0.10402025 -1.109
0.039527696 -0.10402025 -1.109
0.041608103 -0.10402025 -1.109
0.04353093 -0.10364507 -1.105
0.045768913 -0.10402025 -1.109
0.047849316 -0.10402025 -1.109
0.050109815 -0.10439545 -1.113
0.052010126 -0.10402025 -1.109
0.054090533 -0.10402025 -1.109
0.05637354 -0.10439545 -1.113
0.058251344 -0.10402025 -1.109
0.06054936 -0.10439545 -1.113
0.063031211 -0.10505202 -1.12
0.065132253 -0.10505202 -1.12
0.075840056 -0.10533341 -1.123
0.077946723 -0.10533341 -1.123
0.080053397 -0.10533341 -1.123
0.082160063 -0.10533341 -1.123
0.08426673 -0.10533341 -1.123
0.086373396 -0.10533341 -1.123
0.088480063 -0.10533341 -1.123
0.090586737 -0.10533341 -1.123
0.092693403 -0.10533341 -1.123
0.09480007 -0.10533341 -1.123
0.096906736 -0.10533341 -1.123
0.099013411 -0.10533341 -1.123
0.10148025 -0.10570859 -1.127
0.10359442 -0.10570859 -1.127
0.10570859 -0.10570859 -1.127
0.11205111 -0.10570859 -1.127
0.11416528 -0.10570859 -1.127
0.11627945 -0.10570859 -1.127
0.11881384 -0.10608379 -1.131
0.12093551 -0.10608379 -1.131
0.12218676 -0.10533341 -1.123
0.12429342 -0.10533341 -1.123
0.1264001 -0.10533341 -1.123
0.12850676 -0.10533341 -1.123
0.13107866 -0.10570859 -1.127
0.13319282 -0.10570859 -1.127
0.13482676 -0.10533341 -1.123
0.13742118 -0.10570859 -1.127
0.1390401 -0.10533341 -1.123
0.14164951 -0.10570859 -1.127
0.14376369 -0.10570859 -1.127
0.14536011 -0.10533341 -1.123
0.14746678 -0.10533341 -1.123
0.14917387 -0.10505202 -1.12
0.1512749 -0.10505202 -1.12
0.15282819 -0.10467684 -1.1160001
0.15547699 -0.10505202 -1.12
0.15757804 -0.10505202 -1.12
0.15967907 -0.10505202 -1.12
0.1617801 -0.10505202 -1.12
0.16388115 -0.10505202 -1.12
0.16598219 -0.10505202 -1.12
0.16808324 -0.10505202 -1.12
0.17064013 -0.10533341 -1.123
0.17274679 -0.10533341 -1.123
0.17376356 -0.10467684 -1.1160001
0.1758571 -0.10467684 -1.1160001
0.17795062 -0.10467684 -1.1160001
0.18004416 -0.10467684 -1.1160001
0.1821377 -0.10467684 -1.1160001
0.18489155 -0.10505202 -1.12
0.1869926 -0.10505202 -1.12
0.18909363 -0.10505202 -1.12
0.19119468 -0.10505202 -1.12
0.19329572 -0.10505202 -1.12
0.19539675 -0.10505202 -1.12
0.1974978 -0.10505202 -1.12
0.19888599 -0.10467684 -1.1160001
0.20097953 -0.10467684 -1.1160001
0.20307307 -0.10467684 -1.1160001
0.20516661 -0.10467684 -1.1160001
0.20726015 -0.10467684 -1.1160001
0.20935369 -0.10467684 -1.1160001
0.21144721 -0.10467684 -1.1160001
0.21354075 -0.10467684 -1.1160001
0.21563429 -0.10467684 -1.1160001
0.21772783 -0.10467684 -1.1160001
0.21923044 -0.10439545 -1.113
0.22131835 -0.10439545 -1.113
0.22340626 -0.10439545 -1.113
0.22549416 -0.10439545 -1.113
0.22676416 -0.10402025 -1.109
0.22884457 -0.10402025 -1.109
0.23092496 -0.10402025 -1.109
0.23300537 -0.10402025 -1.109
0.23508579 -0.10402025 -1.109
0.23631077 -0.10364507 -1.105
0.23838367 -0.10364507 -1.105
0.24045658 -0.10364507 -1.105
0.24252948 -0.10364507 -1.105
0.24548781 -0.10402025 -1.109
0.2475682 -0.10402025 -1.109
0.24964862 -0.10402025 -1.109
0.252637 -0.10439545 -1.113
0.25472489 -0.10439545 -1.113
0.25681281 -0.10439545 -1.113
0.2589007 -0.10439545 -1.113
0.26098862 -0.10439545 -1.113
0.26213104 -0.10402025 -1.109
0.26421145 -0.10402025 -1.109
0.26629186 -0.10402025 -1.109
0.26837227 -0.10402025 -1.109
0.26947719 -0.10364507 -1.105
0.27155009 -0.10364507 -1.105
0.27362299 -0.10364507 -1.105
0.2749474 -0.10336369 -1.102
0.27701467 -0.10336369 -1.102
0.27806896 -0.1029885 -1.098
0.28012872 -0.1029885 -1.098
0.28141749 -0.10270711 -1.095
0.28347161 -0.10270711 -1.095
0.28552577 -0.10270711 -1.095
0.28757992 -0.10270711 -1.095
0.28963405 -0.10270711 -1.095
0.2916882 -0.10270711 -1.095
0.2926693 -0.10233192 -1.091
0.29471594 -0.10233192 -1.091
0.29676256 -0.10233192 -1.091
0.2988092 -0.10233192 -1.091
0.30085585 -0.10233192 -1.091
0.30290249 -0.10233192 -1.091
0.3049491 -0.10233192 -1.091
0.30699575 -0.10233192 -1.091
0.30904239 -0.10233192 -1.091
0.31108904 -0.10233192 -1.091
0.31227466 -0.10205054 -1.0880001
0.31431565 -0.10205054 -1.0880001
0.31635666 -0.10205054 -1.0880001
0.31751975 -0.10176915 -1.085
0.31955513 -0.10176915 -1.085
0.32159051 -0.10176915 -1.085
0.32362589 -0.10176915 -1.085
0.32446066 -0.10139395 -1.081
0.32648852 -0.10139395 -1.081
0.32851642 -0.10139395 -1.081
0.33054429 -0.10139395 -1.081
0.33257216 -0.10139395 -1.081
0.33367145 -0.10111257 -1.0779999
0.33662793 -0.10139395 -1.081
0.3386558 -0.10139395 -1.081
0.3406837 -0.10139395 -1.081
0.34176046 -0.10111257 -1.0779999
0.34473944 -0.10139395 -1.081
0.34676734 -0.10139395 -1.081
0.34879521 -0.10139395 -1.081
0.34984946 -0.10111257 -1.0779999
0.35187173 -0.10111257 -1.0779999
0.35389397 -0.10111257 -1.0779999
0.3545956 -0.10073739 -1.074
0.35561422 -0.10045599 -1.071
0.35662159 -0.1001746 -1.068
0.35862508 -0.1001746 -1.068
0.3592779 -0.099799417 -1.064
0.36127391 -0.099799417 -1.064
0.36224562 -0.099518031 -1.061
0.364236 -0.099518031 -1.061
0.36519083 -0.099236637 -1.058
0.36821669 -0.099518031 -1.061
0.37125385 -0.099799417 -1.064
0.37324983 -0.099799417 -1.064
0.37524581 -0.099799417 -1.064
0.37617815 -0.099518031 -1.061
0.37816852 -0.099518031 -1.061
0.38015887 -0.099518031 -1.061
0.37998813 -0.098955244 -1.0549999
0.3772606 -0.097735904 -1.0420001
0.3792153 -0.097735904 -1.0420001
0.38007259 -0.097454511 -1.039
0.3820217 -0.097454511 -1.039
-0.49752638 -0.085722454 -0.89600003
-0.49584556 -0.085722454 -0.89600003
-0.49416471 -0.085722454 -0.89600003
-0.49248388 -0.085722454 -0.89600003
-0.48806417 -0.085244082 -0.89099997
-0.4880304 -0.085531101 -0.89399999
-0.48635334 -0.085531101 -0.89399999
-0.48576057 -0.085722454 -0.89600003
-0.48516023 -0.085913792 -0.898
-0.48347566 -0.085913792 -0.898
-0.48447365 -0.086392157 -0.903
-0.4801065 -0.085913792 -0.898
-0.4784219 -0.085913792 -0.898
-0.47939175 -0.086392157 -0.903
-0.48034286 -0.086870514 -0.90799999
-0.4796938 -0.087061867 -0.91000003
-0.47956246 -0.087348878 -0.91299999
-0.47784975 -0.087348878 -0.91299999
-0.47718006 -0.087540224 -0.91500002
-0.47546357 -0.087540224 -0.91500002
-0.4737471 -0.087540224 -0.91500002
-0.47203064 -0.087540224 -0.91500002
-0.47031415 -0.087540224 -0.91500002
-0.47357824 -0.089453675 -0.935
-0.47283351 -0.089645013 -0.93699998
-0.47007027 -0.089453675 -0.935
-0.46831629 -0.089453675 -0.935
-0.46656227 -0.089453675 -0.935
-0.46480829 -0.089453675 -0.935
-0.4630543 -0.089453675 -0.935
-0.46130031 -0.089453675 -0.935
-0.4595463 -0.089453675 -0.935
-0.45701379 -0.089645013 -0.93699998
-0.45525604 -0.089645013 -0.93699998
-0.4534983 -0.089645013 -0.93699998
-0.45174056 -0.089645013 -0.93699998
-0.44998282 -0.089645013 -0.93699998
-0.44822508 -0.089645013 -0.93699998
-0.44646731 -0.089645013 -0.93699998
-0.4461334 -0.089932032 -0.94
-0.44295183 -0.089645013 -0.93699998
-0.44119409 -0.089645013 -0.93699998
-0.43943635 -0.089645013 -0.93699998
-0.43767861 -0.089645013 -0.93699998
-0.43592086 -0.089645013 -0.93699998
-0.43416309 -0.089645013 -0.93699998
-0.43240535 -0.089645013 -0.93699998
-0.43202642 -0.089932032 -0.94
-0.43026307 -0.089932032 -0.94
-0.42941138 -0.090123378 -0.94199997
-0.42764425 -0.090123378 -0.94199997
-0.42587712 -0.090123378 -0.94199997
-0.42411 -0.090123378 -0.94199997
-0.42234287 -0.090123378 -0.94199997
-0.42057574 -0.090123378 -0.94199997
-0.41880864 -0.090123378 -0.94199997
-0.41704151 -0.090123378 -0.94199997
-0.41659692 -0.090410396 -0.94499999
-0.41614106 -0.090697415 -0.94800001
-0.4130514 -0.090410396 -0.94499999
-0.41476038 -0.091175772 -0.95300001
-0.41080594 -0.090697415 -0.94800001
-0.40902755 -0.090697415 -0.94800001
-0.40724918 -0.090697415 -0.94800001
-0.40547079 -0.090697415 -0.94800001
-0.40369239 -0.090697415 -0.94800001
-0.40191403 -0.090697415 -0.94800001
-0.40013564 -0.090697415 -0.94800001
-0.39835727 -0.090697415 -0.94800001
-0.40996552 -0.093758933 -0.98000002
-0.4081271 -0.093758933 -0.98000002
-0.40753242 -0.094045945 -0.98299998
-0.40568838 -0.094045945 -0.98299998
-0.40466601 -0.09423729 -0.98500001
-0.40281823 -0.09423729 -0.98500001
-0.40219164 -0.094524302 -0.98799998
-0.40155384 -0.09481132 -0.991
-0.40090477 -0.095098339 -0.99400002
-0.40024444 -0.095385358 -0.99699998
-0.39837414 -0.095385358 -0.99699998
-0.39531076 -0.095098339 -0.99400002
-0.39463353 -0.095385358 -0.99699998
-0.39276323 -0.095385358 -0.99699998
-0.39089292 -0.095385358 -0.99699998
-0.4190675 -0.10275213 -1.074
-0.41705278 -0.10275213 -1.074
-0.41503802 -0.10275213 -1.074
-0.41302326 -0.10275213 -1.074
-0.41100854 -0.10275213 -1.074
-0.40899378 -0.10275213 -1.074
-0.40697902 -0.10275213 -1.074
-0.4064725 -0.10313482 -1.0779999
-0.40445027 -0.10313482 -1.0779999
-0.40354794 -0.10342184 -1.081
-0.40152007 -0.10342184 -1.081
-0.40097043 -0.10380453 -1.085
-0.40003812 -0.10409155 -1.0880001
-0.39909449 -0.10437856 -1.091
-0.39704785 -0.10437856 -1.091
-0.39644945 -0.10476125 -1.095
-0.39439532 -0.10476125 -1.095
-0.39234117 -0.10476125 -1.095
-0.39135632 -0.10504828 -1.098
-0.38929653 -0.10504828 -1.098
-0.38723677 -0.10504828 -1.098
-0.38517699 -0.10504828 -1.098
-0.38311723 -0.10504828 -1.098
-0.65372372 -0.18943131 -1.98
-0.65000939 -0.18943131 -1.98
-0.64629501 -0.18943131 -1.98
-0.64258069 -0.18943131 -1.98
-0.63531709 -0.1883789 -1.969
-0.63515204 -0.18943131 -1.98
-0.63143766 -0.18943131 -1.98
-0.62772334 -0.18943131 -1.98
-0.62400901 -0.18943131 -1.98
-0.62029469 -0.18943131 -1.98
-0.61658031 -0.18943131 -1.98
-0.57200825 -0.18943131 -1.98
-0.56829393 -0.18943131 -1.98
-0.56457955 -0.18943131 -1.98
-0.56086522 -0.18943131 -1.98
-0.5571509 -0.18943131 -1.98
-0.55036187 -0.1883789 -1.969
-0.54666817 -0.1883789 -1.969
-0.53994113 -0.18732651 -1.9579999
-0.53626806 -0.18732651 -1.9579999
-0.53259498 -0.18732651 -1.9579999
-0.5289219 -0.18732651 -1.9579999
-0.52524883 -0.18732651 -1.9579999
-0.52157575 -0.18732651 -1.9579999
-0.52081227 -0.1883789 -1.969
-0.51711857 -0.1883789 -1.969
-0.51342487 -0.1883789 -1.969
-0.5068835 -0.18732651 -1.9579999
-0.50603747 -0.1883789 -1.969
-0.50234377 -0.1883789 -1.969
-0.50143582 -0.18943131 -1.98
-0.49772146 -0.18943131 -1.98
-0.49126264 -0.1883789 -1.969
-0.49029279 -0.18943131 -1.98
-0.4895274 -0.19057937 -1.992
-0.48579055 -0.19057937 -1.992
-0.4820537 -0.19057937 -1.992
-0.47831684 -0.19057937 -1.992
-0.47720069 -0.19163176 -2.003
-0.47084314 -0.19057937 -1.992
-0.46710631 -0.19057937 -1.992
-0.46057808 -0.18943131 -1.98
-0.45686373 -0.18943131 -1.98
-0.45314941 -0.18943131 -1.98
-0.44693819 -0.1883789 -1.969
-0.44076824 -0.18732651 -1.9579999
-0.43709517 -0.18732651 -1.9579999
-0.43342212 -0.18732651 -1.9579999
-0.42974904 -0.18732651 -1.9579999
-0.42607597 -0.18732651 -1.9579999
-0.41528377 -0.18416932 -1.925
-0.41167259 -0.18416932 -1.925
-0.412725 -0.18627411 -1.947
-0.40907258 -0.18627411 -1.947
-0.41708091 -0.19163176 -2.003
-0.41332343 -0.19163176 -2.003
-0.40731668 -0.19057937 -1.992
-0.40357983 -0.19057937 -1.992
-0.39522633 -0.1883789 -1.969
-0.39153263 -0.1883789 -1.969
-0.38783893 -0.1883789 -1.969
-0.3862913 -0.18943131 -1.98
-0.3804515 -0.1883789 -1.969
-0.37465301 -0.18732651 -1.9579999
-0.3730641 -0.1883789 -1.969
-0.37143394 -0.18943131 -1.98
-0.3656767 -0.1883789 -1.969
-0.361983 -0.1883789 -1.969
-0.35628766 -0.18732651 -1.9579999
-0.35261461 -0.18732651 -1.9579999
-0.34894153 -0.18732651 -1.9579999
-0.34526846 -0.18732651 -1.9579999
-0.34159538 -0.18732651 -1.9579999
-0.33792233 -0.18732651 -1.9579999
-0.33612707 -0.1883789 -1.969
-0.33057618 -0.18732651 -1.9579999
-0.32873967 -0.1883789 -1.969
-0.32686186 -0.18943131 -1.98
-0.32314751 -0.18943131 -1.98
-0.31765854 -0.1883789 -1.969
-0.31396484 -0.1883789 -1.969
-0.30853778 -0.18732651 -1.9579999
-0.3048647 -0.18732651 -1.9579999
-0.30642173 -0.19057937 -1.992
-0.30086148 -0.18943131 -1.98
-0.29714715 -0.18943131 -1.98
-0.2934328 -0.18943131 -1.98
-0.28810892 -0.1883789 -1.969
-0.28441522 -0.1883789 -1.969
-0.27915323 -0.18732651 -1.9579999
-0.27548015 -0.18732651 -1.9579999
-0.27180707 -0.18732651 -1.9579999
-0.1372242 -0.18416932 -1.925
-0.13437654 -0.18522172 -1.936
-0.13148761 -0.18627411 -1.947
-0.12783518 -0.18627411 -1.947
-0.12348115 -0.18522172 -1.936
-0.11984935 -0.18522172 -1.936
-0.12023954 -0.19163176 -2.003
-0.11272457 -0.19163176 -2.003
-0.10896709 -0.19163176 -2.003
-0.095499784 -0.18732651 -1.9579999
-0.091826722 -0.18732651 -1.9579999
-0.088648893 -0.1883789 -1.969
-0.084955193 -0.1883789 -1.969
-0.081261486 -0.1883789 -1.969
-0.077567786 -0.1883789 -1.969
-0.073461376 -0.18732651 -1.9579999
-0.069396242 -0.18627411 -1.947
-0.065743804 -0.18627411 -1.947
-0.062442169 -0.18732651 -1.9579999
-0.059099264 -0.1883789 -1.969
-0.055405561 -0.1883789 -1.969
-0.036524337 -0.18627411 -1.947
-0.032871902 -0.18627411 -1.947
-0.02938455 -0.18732651 -1.9579999
-0.025711481 -0.18732651 -1.9579999
-0.022038413 -0.18732651 -1.9579999
-0.018365344 -0.18732651 -1.9579999
-0.014692275 -0.18732651 -1.9579999
-0.011019207 -0.18732651 -1.9579999
-0.0072635966 -0.18522172 -1.936
-0.0036317983 -0.18522172 -1.936
0 -0.18732651 -1.9579999
0.035366885 -0.10610066 -1.109
0.037447292 -0.10610066 -1.109
0.039527696 -0.10610066 -1.109
0.041608103 -0.10610066 -1.109
0.043688506 -0.10610066 -1.109
0.045768913 -0.10610066 -1.109
0.047849316 -0.10610066 -1.109
0.050109815 -0.10648336 -1.113
0.052197725 -0.10648336 -1.113
0.054090533 -0.10610066 -1.109
0.056170937 -0.10610066 -1.109
0.05846145 -0.10648336 -1.113
0.06054936 -0.10648336 -1.113
0.063031211 -0.10715306 -1.12
0.065132253 -0.10715306 -1.12
0.082160063 -0.10744008 -1.123
0.08426673 -0.10744008 -1.123
0.10148025 -0.10782276 -1.127
0.10359442 -0.10782276 -1.127
0.10570859 -0.10782276 -1.127
0.11881384 -0.10820546 -1.131
0.12093551 -0.10820546 -1.131
0.12218676 -0.10744008 -1.123
0.12473614 -0.10782276 -1.127
0.12685031 -0.10782276 -1.127
0.12850676 -0.10744008 -1.123
0.13107866 -0.10782276 -1.127
0.13319282 -0.10782276 -1.127
0.135307 -0.10782276 -1.127
0.13742118 -0.10782276 -1.127
0.13953534 -0.10782276 -1.127
0.14164951 -0.10782276 -1.127
0.14376369 -0.10782276 -1.127
0.14536011 -0.10744008 -1.123
0.14746678 -0.10744008 -1.123
0.14917387 -0.10715306 -1.12
0.15073465 -0.10677037 -1.1160001
0.15282819 -0.10677037 -1.1160001
0.15547699 -0.10715306 -1.12
0.15757804 -0.10715306 -1.12
0.15967907 -0.10715306 -1.12
0.16120233 -0.10677037 -1.1160001
0.16388115 -0.10715306 -1.12
0.16598219 -0.10715306 -1.12
0.16808324 -0.10715306 -1.12
0.17064013 -0.10744008 -1.123
0.17274679 -0.10744008 -1.123
0.17376356 -0.10677037 -1.1160001
0.1764874 -0.10715306 -1.12
0.17795062 -0.10677037 -1.1160001
0.17956017 -0.10648336 -1.113
0.1821377 -0.10677037 -1.1160001
0.18489155 -0.10715306 -1.12
0.1869926 -0.10715306 -1.12
0.18909363 -0.10715306 -1.12
0.19119468 -0.10715306 -1.12
0.19329572 -0.10715306 -1.12
0.19539675 -0.10715306 -1.12
0.1974978 -0.10715306 -1.12
0.19888599 -0.10677037 -1.1160001
0.20097953 -0.10677037 -1.1160001
0.20307307 -0.10677037 -1.1160001
0.20516661 -0.10677037 -1.1160001
0.20726015 -0.10677037 -1.1160001
0.20935369 -0.10677037 -1.1160001
0.21144721 -0.10677037 -1.1160001
0.21923044 -0.10648336 -1.113
0.2219149 -0.10677037 -1.1160001
0.22340626 -0.10648336 -1.113
0.22549416 -0.10648336 -1.113
0.22758208 -0.10648336 -1.113
0.22884457 -0.10610066 -1.109
0.23092496 -0.10610066 -1.109
0.23300537 -0.10610066 -1.109
0.23508579 -0.10610066 -1.109
0.23631077 -0.10571798 -1.105
0.23838367 -0.10571798 -1.105
0.24045658 -0.10571798 -1.105
0.2434074 -0.10610066 -1.109
0.24548781 -0.10610066 -1.109
0.2475682 -0.10610066 -1.109
0.24964862 -0.10610066 -1.109
0.252637 -0.10648336 -1.113
0.25472489 -0.10648336 -1.113
